142 147 147 147 150 153 158 153 150 147 150 150 145 142 140 137 132 137 135 135 137 142 137 137 140 142 145 142 142 137 140 140 145 140 140 142 142 142 142 142 137 137 135 135 137 140 140 140 137 137 142 142 147 150 150 153 155 158 158 160 163 160 165 163 158 155 150 145 142 142 140 135 135 137 142 137 145 147 153 158 163 160 165 168 173 175 181 175 173 168 170 165 165 163 160 155 155 155 155 160 163 165 168 165 165 168 173 175 178 178 175 173 170 175 181 178 173 170 168 170 173 178 181 186 191 186 181 175 175 173 175 178 183 183 183 178 183 183 183 183 188 186 181 175 173 168 163 158 158 160 160 163 163 165 163 163 165 165 160 155 153 153 150 147 153 153 147 142 142 142 140 140 135 132 132 132 130 135 130 132 137 140 140 137 137 137 135 135 135 140 137 137 132 130 130 127 124 122 119 122 124 127 130 127 122 122 119 119 119 122 119 117 112 112 117 114 109 107 102 102 99 99 102 104 109 107 109 107 104 102 99 99 102 107 112 117 119 119 119 119 114 114 112 114 114 117 117 122 122 119 122 122 124 122 124 119 114 112 109 104 102 107 112 114 117 119 124 130 132 135 132 132 137 132 132 135 135 132 137 140 145 150 155 153 153 158 163 168 165 163 160 160 163 165 170 173 173 168 173 173 173 173 170 168 165 170 170 173 178 173 173 170 168 168 163 160 163 158 153 147 145 142 145 150 150 150 150 147 145 142 145 147 153 150 150 147 147 150 150 147 145 142 142 145 147 145 147 153 147 142 140 142 137 137 132 130 127 127 127 127 124 130 135 140 140 145 147 153 153 150 150 150 153 153 150 153 155 153 158 158 155 150 147 147 153 158 163 168 173 178 183 183 188 183 181 181 186 188 188 191 193 193 188 183 178 175 170 165 165 165 163 160 158 153 153 158 163 160 160 160 155 153 147 145 150 147 145 147 147 153 150 147 147 153 147 142 137 137 132 127 124 119 117 119 119 124 122 124 130 135 137 142 142 142 147 150 155 155 160 165 170 170 170 173 173 175 181 186 181 175 175 173 170 165 160 158 153 153 150 147 147 145 147 142 145 147 150 150 147 147 153 155 155 153 155 150 153 150 150 153 147 150 150 150 150 155 155 150 147 142 137 137
147 150 150 150 155 158 158 158 153 147 147 145 142 140 137 137 137 140 140 140 142 147 142 140 142 145 145 142 147 142 142 142 145 142 142 147 147 145 147 145 140 140 140 140 140 145 142 142 137 142 145 147 153 155 155 158 160 163 163 163 163 163 163 163 158 153 147 145 140 137 135 137 140 137 140 140 140 145 147 153 158 158 160 165 170 173 175 173 173 168 165 160 160 163 160 160 160 158 158 163 165 168 168 165 165 170 173 175 181 178 175 178 175 178 178 175 170 168 173 175 178 181 186 191 193 188 186 181 175 173 178 181 181 181 181 183 186 186 183 188 191 188 186 181 175 173 168 163 158 158 158 160 165 165 160 160 160 160 155 150 147 150 147 145 147 150 145 145 142 137 135 137 132 132 132 135 132 135 130 135 132 135 137 132 132 132 130 130 132 135 132 132 130 130 124 124 119 117 114 119 119 122 127 122 119 117 114 114 117 117 122 119 117 112 112 114 109 104 99 99 94 102 104 104 102 102 104 107 104 99 99 102 104 109 114 117 122 119 117 117 112 117 112 114 114 119 119 122 124 122 127 124 130 124 122 117 112 107 107 104 104 107 109 112 117 119 124 124 130 132 132 137 140 137 135 140 137 132 137 142 145 150 155 155 155 158 160 165 165 163 163 163 163 165 168 170 170 170 175 178 178 173 170 170 170 170 173 175 173 178 175 175 170 170 165 165 163 158 153 150 147 147 147 150 150 145 145 145 147 142 145 150 155 153 153 147 150 153 153 147 147 145 142 147 150 150 153 155 153 147 142 147 142 137 132 127 122 122 122 127 122 127 130 135 140 142 147 147 153 147 147 150 150 155 153 155 158 153 153 155 150 147 142 145 150 155 160 165 170 173 178 183 186 183 178 175 183 188 193 191 193 193 188 183 178 175 173 170 165 163 160 158 155 155 155 155 160 163 160 160 155 150 147 147 147 153 147 153 147 150 145 142 145 147 142 140 135 140 135 130 127 122 117 114 114 119 119 124 127 132 137 142 142 142 145 147 153 158 160 165 170 170 175 175 178 181 183 188 183 178 175 175 170 165 160 158 155 155 150 147 142 142 142 142 142 147 153 155 153 150 147 153 153 150 150 145 147 150 150 153 150 147 147 147 150 150 150 147 142 140 137 135
147 150 153 153 155 158 160 160 155 150 147 142 140 142 142 140 140 145 145 147 147 150 147 145 145 147 150 147 145 142 145 142 142 147 147 150 153 150 150 147 145 145 145 142 137 142 145 142 142 147 150 153 158 160 158 163 165 168 168 168 168 163 160 158 153 150 147 142 137 135 135 137 142 140 142 140 137 142 147 150 155 158 163 165 168 173 175 175 173 168 168 165 163 160 165 160 163 163 160 165 160 165 170 170 165 168 170 173 175 181 178 175 175 178 181 175 173 168 170 173 178 181 186 188 191 186 183 181 178 175 175 178 178 183 181 183 188 191 186 188 188 191 186 181 175 173 168 165 160 160 160 163 165 163 158 158 155 155 150 147 145 145 142 137 142 145 145 142 140 135 132 132 130 130 135 140 135 130 127 130 127 132 135 132 130 130 132 127 130 130 130 132 130 127 124 122 119 117 114 114 114 119 122 119 114 114 109 114 112 112 114 119 117 114 117 112 107 104 102 96 96 99 102 102 99 99 99 102 104 99 94 99 104 109 114 119 122 117 114 112 109 112 114 109 114 119 122 124 124 127 130 127 130 124 122 117 112 107 107 107 107 109 112 114 119 122 127 124 127 130 130 132 137 140 137 142 140 135 132 137 142 147 150 153 155 155 160 163 165 163 165 163 160 160 163 168 168 168 170 175 175 175 173 173 173 175 175 178 175 178 175 178 175 173 168 170 165 160 158 153 153 153 147 147 147 147 150 145 150 147 147 153 158 158 158 153 153 158 155 150 147 145 142 145 147 153 155 158 155 150 145 145 140 135 132 127 122 124 122 122 119 122 127 132 135 140 145 145 147 145 145 145 145 150 153 153 153 155 153 153 147 142 137 140 145 150 155 163 165 170 175 178 181 183 181 178 181 186 188 193 196 191 188 186 181 175 175 170 168 163 158 153 153 153 155 155 155 160 158 158 155 150 150 150 153 153 147 150 153 147 142 142 140 142 142 137 135 135 132 127 122 117 114 112 109 114 114 119 124 127 132 137 140 142 142 145 150 155 160 165 170 175 181 181 181 181 178 183 183 178 175 173 168 163 158 153 153 155 150 145 142 142 137 137 140 142 147 153 155 153 150 150 147 150 150 145 142 147 147 150 147 145 145 150 147 145 147 145 140 137 135 132
150 155 155 158 155 160 163 160 158 153 147 145 140 140 140 142 142 147 147 153 153 155 153 147 147 153 155 150 150 145 140 140 140 145 150 150 150 153 153 147 147 147 142 137 137 137 142 145 142 147 153 158 163 165 163 168 168 173 173 170 165 163 158 153 150 147 142 140 137 137 140 142 140 140 140 135 135 140 145 147 153 158 160 163 165 170 173 170 168 165 163 160 160 160 163 163 165 168 165 165 163 165 170 173 170 170 173 178 173 175 175 178 175 175 181 175 173 173 175 175 175 181 183 186 186 188 183 181 178 178 175 175 173 178 175 183 186 188 188 191 191 188 186 181 178 173 170 168 163 158 158 158 160 158 155 153 153 150 150 145 142 142 137 135 140 145 145 142 140 135 130 130 127 130 135 135 130 130 127 124 124 130 135 132 132 135 130 127 127 130 127 127 122 124 122 117 117 119 119 114 112 114 117 114 112 112 107 112 107 109 112 114 114 112 114 112 107 102 102 99 96 96 99 96 94 94 99 102 99 96 96 102 107 112 117 119 119 117 114 109 109 112 114 112 114 119 122 127 130 130 127 132 127 122 119 114 109 109 112 112 112 114 114 114 119 124 130 130 130 132 132 135 140 142 140 140 140 137 135 135 140 145 150 153 155 158 160 160 163 163 165 165 165 165 163 163 165 163 168 173 175 178 175 175 175 178 181 178 175 178 175 178 173 168 165 168 163 160 155 158 155 153 153 150 147 147 153 150 153 150 153 158 158 160 158 155 155 160 155 153 150 145 147 150 147 150 153 155 150 150 147 142 137 132 127 124 122 124 119 117 114 119 124 127 132 137 140 142 142 142 140 142 145 147 147 147 147 150 150 147 142 137 132 135 140 147 153 158 163 168 173 173 175 181 175 181 183 186 188 188 191 186 183 183 178 173 173 170 165 160 155 150 153 150 150 150 150 155 153 155 155 155 155 153 153 150 147 153 153 150 145 140 137 137 137 137 137 132 130 124 119 114 112 109 109 112 112 114 119 124 127 132 135 137 140 145 147 153 158 163 168 173 178 183 183 181 175 178 178 175 173 173 168 163 160 155 155 150 145 142 137 137 135 132 140 142 147 147 150 153 150 145 142 147 145 140 140 145 145 145 145 145 145 145 142 142 142 140 135 132 130 132
153 158 158 158 160 165 163 160 155 153 147 145 140 140 142 145 145 150 153 158 158 160 158 153 153 158 158 155 153 147 145 145 145 147 153 153 147 147 147 150 150 153 147 142 140 140 142 147 145 147 153 155 160 163 165 168 173 170 168 168 165 160 155 150 147 145 140 140 137 142 140 140 137 137 135 132 137 142 145 142 147 153 158 160 160 165 168 170 165 163 163 163 163 160 165 163 165 170 168 168 163 168 168 170 175 175 178 175 173 170 170 173 173 178 181 175 173 175 178 175 178 183 188 186 186 186 186 181 181 181 178 175 173 178 178 181 186 191 186 186 188 191 186 183 178 173 170 165 160 160 158 155 155 158 158 155 153 147 145 140 137 140 135 135 137 142 145 142 140 135 132 127 127 132 135 130 127 127 124 127 127 130 130 135 130 132 130 127 127 124 122 122 117 119 119 119 119 122 117 114 109 114 112 109 112 109 107 107 104 104 107 109 109 109 112 107 104 99 96 96 94 91 94 94 89 91 96 99 102 102 99 102 104 109 114 117 117 117 114 109 107 112 112 112 114 119 122 127 132 130 127 127 127 122 117 112 107 107 112 117 114 119 119 114 119 124 127 132 135 135 132 137 142 140 140 142 142 137 135 135 137 142 147 150 155 158 160 158 160 163 163 168 165 160 165 163 168 165 170 170 175 175 175 181 181 183 183 181 178 178 178 178 173 168 163 163 160 155 155 160 158 155 153 153 153 147 150 153 155 155 158 163 163 158 155 153 155 158 155 155 153 147 150 153 153 150 150 153 150 145 142 137 132 130 127 122 122 119 117 112 112 114 119 124 130 135 135 137 140 137 135 140 140 142 145 142 145 145 147 142 137 135 130 135 140 145 150 155 160 165 170 170 170 175 173 175 181 183 188 191 188 186 181 181 181 175 170 168 163 160 155 150 155 150 147 147 147 150 150 153 150 153 155 153 153 150 150 153 153 147 142 140 135 135 135 137 140 135 130 124 122 117 114 112 109 112 109 112 117 122 124 127 130 135 140 145 150 155 160 165 170 173 175 181 175 175 173 175 178 175 170 170 168 165 160 155 155 153 147 142 137 135 135 135 140 142 145 145 147 147 145 142 137 142 147 142 140 142 145 142 147 142 142 142 137 137 137 135 132 130 124 130
158 158 158 160 160 165 165 160 155 153 147 147 142 145 147 145 150 155 158 160 163 165 163 158 158 160 163 158 155 153 150 147 147 153 150 155 153 150 153 155 150 147 145 142 140 140 140 145 147 147 150 155 158 160 160 165 168 173 173 170 165 160 155 150 145 140 137 137 137 140 140 137 137 137 135 132 132 137 140 137 142 147 153 158 158 160 163 165 163 160 163 163 158 160 163 165 163 165 165 170 165 170 165 170 175 178 178 178 175 170 170 175 173 173 178 178 178 175 173 178 181 183 186 188 183 188 186 183 178 178 181 178 175 178 181 183 188 186 186 188 186 186 183 181 178 173 170 165 165 163 160 158 158 163 158 153 150 145 140 135 135 135 135 135 137 142 147 145 142 137 132 127 127 132 130 127 122 122 122 127 124 124 127 130 127 130 132 130 124 119 117 117 114 114 114 117 117 117 114 112 109 109 107 107 107 112 107 104 99 99 102 104 109 107 109 107 102 99 99 99 94 91 89 89 86 89 94 99 104 102 104 102 102 107 109 114 117 112 109 109 109 109 112 114 117 119 122 127 130 132 130 130 124 117 114 109 104 107 112 114 119 119 122 117 114 119 124 130 135 135 132 135 140 142 140 140 142 140 140 140 142 145 150 155 158 155 158 153 155 158 163 165 163 163 163 165 168 165 170 175 178 178 178 178 183 188 186 183 181 181 178 173 170 165 163 158 155 158 158 160 158 158 158 155 153 153 153 155 155 155 155 158 158 155 155 153 153 158 155 155 153 150 153 158 155 155 153 155 147 142 140 135 130 127 124 122 124 122 117 114 112 114 117 122 127 132 130 132 135 132 132 135 135 137 140 140 140 142 145 142 137 135 132 135 140 145 153 158 163 165 170 170 170 173 170 173 178 178 183 188 183 181 181 183 178 175 170 168 163 158 155 150 147 145 145 142 142 147 150 153 153 155 153 153 150 147 147 150 153 147 142 140 135 137 135 137 140 135 130 124 119 117 112 112 107 107 104 109 112 117 122 122 124 130 137 142 145 150 155 160 165 170 173 175 173 175 170 170 175 170 168 168 165 165 163 160 158 153 147 142 140 135 135 137 140 140 142 142 142 142 140 137 135 137 142 137 135 140 140 140 142 137 137 137 132 135 135 132 127 127 124 124
150 155 158 158 160 163 163 158 153 155 153 153 147 145 150 147 150 153 158 163 165 170 165 163 163 163 165 163 160 158 155 153 150 147 147 153 155 155 153 150 145 145 145 147 145 145 142 142 145 145 147 150 155 158 163 168 170 173 173 168 163 160 155 150 145 140 140 135 135 140 142 137 137 137 132 132 135 137 142 137 137 142 147 153 153 158 160 160 155 155 160 160 158 160 160 160 160 163 160 165 163 168 165 170 173 175 173 178 175 170 170 175 173 173 178 181 181 178 175 178 183 186 188 188 183 188 186 181 181 181 183 178 178 183 183 186 183 183 183 188 186 183 183 183 178 173 168 168 168 163 165 160 158 158 158 153 150 145 140 135 130 132 135 137 140 145 145 145 142 137 132 127 127 132 130 124 119 117 119 122 127 124 122 127 122 127 130 124 119 114 114 112 109 109 109 112 112 112 112 107 104 107 104 109 112 114 112 107 104 99 96 99 104 104 104 102 99 99 102 96 91 89 84 84 86 91 94 99 104 107 109 104 104 107 112 114 114 112 112 109 109 109 112 117 122 124 124 122 127 127 130 127 122 117 112 107 104 107 109 114 117 114 119 117 119 122 127 132 137 137 135 132 137 140 142 142 145 140 142 145 142 145 150 153 158 155 153 147 150 153 158 163 168 163 163 163 165 170 175 178 178 181 181 181 186 188 191 186 181 178 173 173 170 165 163 160 155 158 155 155 155 153 160 155 155 155 155 153 153 155 155 155 155 155 158 158 153 155 158 153 153 153 153 158 153 153 155 155 147 142 137 135 127 124 127 122 122 124 119 117 114 114 119 122 124 130 130 127 130 127 130 132 132 132 135 135 137 142 140 137 135 137 135 135 140 147 153 158 160 165 170 168 170 170 168 170 173 175 181 183 178 175 175 178 173 168 168 163 158 155 153 147 142 142 140 137 137 142 147 153 153 153 155 150 147 147 145 150 155 150 145 140 137 135 132 135 137 132 127 122 122 117 112 109 104 104 104 104 109 114 117 119 124 130 135 140 145 150 155 155 160 165 170 170 168 170 168 168 170 170 173 168 170 165 165 160 155 150 145 142 137 140 140 140 142 142 140 140 137 137 140 135 135 135 140 135 130 135 137 137 137 132 132 132 127 130 130 127 122 124 124 124
155 158 158 160 158 163 163 158 153 153 155 155 153 150 153 147 153 158 163 165 170 173 170 165 168 168 168 168 165 160 160 155 150 150 153 155 155 155 158 153 147 147 147 147 150 150 147 147 147 150 150 153 158 163 165 170 170 170 170 165 163 155 153 147 142 137 135 132 132 135 137 140 140 137 135 137 137 137 140 135 135 140 145 147 147 153 155 158 153 153 155 160 158 163 158 155 155 158 158 163 163 165 170 173 175 175 170 173 173 175 173 173 175 175 181 183 183 183 178 183 186 191 186 186 186 186 188 183 186 186 183 181 181 186 186 191 186 183 186 188 188 188 183 178 178 175 173 168 168 165 165 165 163 158 158 155 150 145 140 135 130 135 137 137 142 147 145 142 137 137 135 132 130 130 124 119 117 114 117 119 124 124 124 124 122 122 124 119 117 114 109 107 107 107 104 107 107 107 107 102 99 102 104 107 112 112 109 104 99 94 91 96 99 104 102 99 96 99 99 94 91 86 81 79 84 89 94 99 102 107 107 104 107 107 112 117 114 117 112 109 112 112 117 119 119 122 124 124 124 130 127 127 122 119 114 109 107 112 114 114 117 114 117 119 122 124 130 135 137 137 135 132 135 135 140 145 142 142 147 145 145 150 155 158 153 150 147 145 145 150 155 158 163 165 165 168 170 175 178 183 181 181 178 181 183 186 186 183 178 175 175 175 170 165 165 163 160 160 158 158 155 155 155 158 155 155 158 153 155 155 158 155 155 158 160 158 155 155 155 155 155 155 155 155 150 155 158 153 145 140 137 132 127 124 124 124 124 124 122 117 114 117 122 119 122 124 124 122 124 124 130 132 132 132 130 132 135 137 135 132 132 135 135 135 140 145 150 155 158 163 165 163 168 168 168 168 173 175 181 178 173 170 170 170 168 165 163 158 155 153 147 145 140 140 137 137 140 145 147 153 155 158 153 150 147 150 145 150 153 147 145 140 135 135 130 132 132 130 124 122 117 112 109 107 104 104 104 104 104 109 114 119 124 130 135 140 142 147 150 153 158 163 165 168 163 168 170 168 168 168 170 170 168 163 160 158 155 150 145 142 137 140 140 137 140 142 140 140 135 135 135 137 137 137 135 130 124 130 132 132 135 132 127 130 124 124 124 122 122 124 122 124
153 158 160 155 155 158 160 158 155 158 160 160 155 153 153 153 155 160 163 165 168 173 170 170 173 170 170 173 170 165 163 158 155 153 153 158 158 160 160 158 153 153 153 153 155 155 153 153 153 155 153 158 160 165 170 173 170 165 170 168 163 158 153 147 145 140 135 135 137 135 135 140 145 140 137 142 140 140 142 137 135 135 140 142 145 147 150 153 147 150 153 155 158 158 155 150 153 155 160 163 163 168 173 173 170 175 170 170 173 178 175 178 178 178 183 183 188 186 181 183 186 186 188 188 186 188 188 183 188 191 186 181 181 186 188 191 188 186 186 191 191 188 183 178 183 178 175 173 170 168 168 168 165 160 158 158 153 147 142 137 135 137 140 140 145 147 142 145 140 142 137 132 130 124 122 117 117 114 117 119 124 122 124 124 122 119 119 117 114 109 107 107 107 102 102 102 102 104 102 96 96 99 99 104 107 109 107 102 96 94 91 96 102 104 99 99 96 102 96 91 91 86 86 84 86 91 96 102 102 107 109 109 109 107 109 114 114 119 117 112 114 117 119 124 124 124 124 127 127 124 124 124 119 114 112 112 109 114 119 117 119 119 122 122 124 130 135 135 135 137 135 135 137 137 137 140 145 145 145 150 147 150 153 158 155 153 150 147 145 150 155 160 163 165 170 168 173 178 181 183 183 181 178 181 183 181 181 178 175 175 178 175 173 170 170 165 163 163 160 163 160 160 158 158 155 158 158 155 158 155 155 155 155 160 160 160 158 158 158 158 155 160 158 153 150 155 155 155 147 142 137 135 130 124 122 122 119 124 124 122 117 117 119 114 117 119 124 122 124 127 130 130 132 135 132 135 135 135 135 132 137 140 135 137 140 145 150 153 158 160 160 158 163 165 170 168 170 175 175 175 173 168 168 165 163 160 158 155 147 147 142 140 140 140 140 137 142 147 150 153 158 153 150 147 150 147 145 150 147 145 142 140 140 135 130 132 130 124 122 117 112 112 109 109 104 104 104 102 104 109 114 119 124 130 135 137 142 142 147 147 153 158 160 163 163 165 170 170 170 170 173 168 163 160 160 160 155 153 147 145 140 142 137 135 137 140 142 137 132 130 130 130 132 132 130 124 124 124 127 127 132 130 127 127 127 127 124 124 124 124 122 127
158 160 160 158 158 163 163 163 158 155 160 165 160 155 155 158 158 155 158 163 168 170 173 175 178 175 175 175 173 170 165 160 155 155 158 160 160 163 160 158 153 158 158 158 160 158 158 155 155 158 158 163 165 170 170 173 170 168 168 168 163 158 155 150 145 140 135 140 137 140 140 145 145 145 140 140 140 142 145 142 137 140 140 145 145 147 145 147 142 147 150 153 158 158 158 153 155 155 160 163 163 165 170 173 173 175 173 173 178 183 181 181 183 183 186 188 191 188 183 186 188 186 188 191 186 188 186 186 191 193 191 186 186 188 191 193 188 191 191 193 193 188 186 183 186 183 181 178 175 170 168 165 165 163 163 160 155 153 147 142 137 137 140 142 147 142 142 145 145 145 140 135 135 130 124 122 119 119 117 117 119 119 119 119 117 114 114 114 112 109 107 107 102 96 96 96 99 99 96 96 99 102 102 102 104 109 104 99 96 94 96 99 104 107 102 99 96 96 91 89 89 89 91 89 91 96 102 104 104 107 112 112 112 112 114 117 119 122 119 117 117 122 122 124 122 127 122 124 124 122 119 119 117 114 114 114 114 119 117 117 122 122 122 127 127 132 135 137 135 140 135 137 142 140 140 142 145 147 147 150 150 155 155 158 158 155 153 147 145 147 153 158 163 165 170 168 173 175 178 181 186 183 183 186 183 181 178 175 178 181 175 175 175 173 168 168 163 165 165 165 163 165 160 160 158 163 160 160 163 160 160 158 158 163 160 163 158 158 158 160 155 160 158 158 153 153 153 153 147 142 140 135 130 124 122 122 119 122 122 119 119 119 119 114 114 119 119 119 122 124 127 130 132 132 137 137 140 140 137 137 137 142 140 142 142 145 147 153 158 155 155 158 160 165 170 165 165 170 168 173 173 168 163 163 160 155 153 150 145 142 140 140 140 142 142 142 145 150 155 155 155 153 150 145 145 145 145 145 145 142 140 142 142 137 132 130 124 122 117 114 112 112 114 112 107 109 107 102 99 107 112 119 124 130 135 140 142 147 147 145 150 155 158 163 165 170 165 168 170 165 168 165 163 160 163 160 155 153 147 142 142 140 135 130 132 137 137 135 135 130 127 127 127 130 127 124 124 130 124 122 127 130 130 132 130 130 130 127 124 127 124 124
165 165 163 163 163 165 163 160 155 155 158 160 155 160 160 160 160 158 163 168 170 173 175 175 181 178 181 181 178 173 168 163 158 158 160 163 160 165 160 158 158 163 163 163 163 163 163 160 155 160 160 165 168 170 170 173 170 170 168 163 163 158 153 147 145 140 137 140 142 142 145 150 147 142 140 142 142 142 145 142 140 145 142 147 142 142 142 145 142 147 153 153 158 163 160 155 158 160 165 163 163 165 170 170 175 178 178 173 178 181 183 186 186 188 191 188 193 188 186 183 183 186 188 188 188 193 191 188 188 191 188 186 188 191 193 196 191 196 191 193 196 193 191 188 191 186 186 181 178 173 173 168 163 163 168 163 158 153 147 142 137 140 142 140 145 145 145 142 145 150 145 140 137 132 127 124 122 122 122 117 117 114 117 117 114 112 109 112 107 104 109 104 99 94 94 94 94 94 94 94 99 104 99 99 102 104 107 102 96 94 96 99 99 102 99 99 102 99 94 91 91 91 91 94 96 102 104 104 104 107 112 117 114 114 117 119 119 124 122 119 119 124 122 119 119 122 117 119 119 117 114 117 114 114 117 119 119 122 119 122 122 127 124 127 132 135 137 140 137 137 140 142 147 142 145 147 147 147 147 147 150 153 155 160 160 158 158 153 150 153 158 163 163 168 168 173 175 175 178 183 188 186 186 188 188 183 178 175 175 175 173 173 173 168 165 165 165 170 170 170 168 170 165 160 160 160 160 165 168 165 163 163 160 160 158 160 163 160 163 160 158 160 158 160 158 153 155 153 147 142 137 132 130 124 124 122 119 119 124 124 119 122 122 117 117 119 119 117 117 119 122 124 130 130 132 137 142 145 140 142 142 145 145 145 145 150 150 155 158 155 155 155 160 165 168 163 163 165 163 168 168 165 160 158 155 150 147 145 140 140 140 140 142 140 140 140 142 145 150 153 153 153 147 145 142 140 140 140 140 140 137 137 140 135 130 124 122 117 112 112 114 114 114 112 109 112 107 104 102 107 112 117 122 127 132 137 142 145 145 142 145 150 155 160 163 165 163 165 165 163 168 163 163 160 163 163 158 153 147 142 140 135 132 132 137 137 140 135 135 130 127 122 122 127 127 127 127 127 127 124 130 135 135 135 135 132 130 124 124 127 127 130
165 168 165 165 168 168 165 160 160 160 160 160 158 163 163 165 160 160 163 168 173 173 175 173 178 181 183 186 181 175 170 165 160 158 160 163 163 163 160 158 163 165 168 168 168 168 165 163 158 160 163 163 163 165 165 170 170 165 163 160 158 155 150 145 140 137 137 140 142 147 147 150 145 140 140 142 142 142 147 145 145 147 145 147 145 142 145 145 142 145 150 150 155 158 158 155 153 155 160 160 160 165 168 173 175 175 175 175 178 181 181 186 191 193 196 191 193 191 188 186 181 186 191 193 188 193 193 191 191 188 186 186 188 191 196 193 193 196 191 196 196 196 196 193 196 191 191 186 181 175 173 168 165 165 168 163 158 153 147 142 140 140 140 140 145 142 142 142 145 150 145 140 135 132 127 122 119 122 119 119 114 112 112 114 112 109 109 112 109 104 104 102 99 96 91 89 89 89 91 91 96 102 104 99 99 104 102 96 94 94 96 96 94 99 99 99 104 99 96 96 94 94 96 99 102 102 102 102 104 109 112 112 117 119 117 122 122 124 127 122 122 124 124 122 117 117 114 114 114 112 109 112 117 119 122 122 122 122 122 124 122 127 127 127 132 137 140 137 137 137 142 145 147 145 147 153 153 153 153 150 153 155 158 163 158 163 160 155 153 158 160 165 165 165 165 168 173 178 181 186 191 188 191 193 193 188 183 178 173 173 173 168 168 165 163 165 168 170 173 175 173 173 170 165 165 163 165 168 170 170 168 165 165 163 158 163 163 165 168 163 163 165 163 160 160 158 153 150 145 142 137 132 130 127 124 124 119 119 122 122 119 122 117 117 117 117 114 112 114 114 119 119 124 124 130 135 140 142 142 145 145 147 145 145 147 150 153 150 153 155 153 155 158 163 163 158 158 158 160 163 163 160 155 153 150 145 145 142 140 140 142 145 140 137 137 142 137 142 145 147 150 145 142 137 137 135 135 137 137 137 137 140 135 132 127 122 117 117 117 117 112 114 109 109 109 109 107 104 104 104 109 114 119 124 130 132 137 142 142 137 140 145 150 155 160 165 163 163 160 158 163 158 158 158 160 158 155 150 145 142 140 137 137 137 142 140 142 137 135 130 124 119 119 124 124 124 122 122 127 124 127 132 137 140 137 132 127 127 124 127 127 127
175 165 170 170 170 165 163 160 163 163 160 163 160 165 168 168 163 163 168 173 175 178 175 173 175 181 183 183 178 178 173 170 165 163 163 165 165 160 160 163 165 170 173 173 173 170 170 165 163 163 165 165 163 163 163 168 165 163 158 158 158 153 150 145 142 140 137 142 147 147 145 150 145 142 145 142 142 147 145 145 147 153 150 150 150 145 147 145 145 145 145 150 153 153 153 150 150 153 158 160 163 168 173 178 181 178 181 175 181 181 183 188 191 196 196 193 196 193 191 186 181 183 188 193 188 188 188 188 188 188 191 191 188 193 191 188 191 193 193 196 198 201 198 196 196 191 191 186 181 178 173 170 168 165 163 160 160 155 150 147 142 142 145 142 145 147 147 147 145 145 142 140 135 130 124 122 117 117 117 114 112 112 109 109 107 104 107 109 107 107 104 107 104 99 96 91 89 86 86 91 96 102 107 102 104 102 96 96 94 94 91 91 94 99 99 102 102 102 99 94 99 96 102 104 107 107 104 102 99 104 107 109 114 117 114 119 119 124 124 122 119 122 127 122 117 114 109 114 114 114 112 117 122 122 122 124 124 124 124 127 127 127 132 130 132 137 140 137 137 135 137 142 147 150 153 158 155 158 158 155 153 155 155 160 158 163 165 160 155 160 165 170 168 168 168 170 175 178 178 183 188 188 191 196 193 191 186 181 175 173 173 170 165 163 163 165 168 173 175 178 178 178 173 168 170 168 168 173 175 173 170 168 168 165 163 163 165 165 165 168 168 170 168 165 160 158 153 147 142 140 135 132 130 130 130 127 122 124 119 119 122 117 114 114 117 119 117 112 114 114 117 122 122 119 127 130 135 140 142 145 147 145 145 147 150 153 153 150 153 150 150 155 158 163 160 155 153 155 155 158 160 160 155 153 147 142 140 140 142 142 147 147 142 142 140 140 137 140 140 145 142 140 137 132 132 130 132 132 132 137 140 140 137 132 127 122 119 117 114 112 109 109 107 104 109 107 102 107 109 107 112 117 122 127 130 135 132 137 137 135 137 142 145 150 155 160 163 158 160 158 158 153 153 153 155 155 153 150 150 147 142 142 142 142 145 145 140 140 137 135 130 124 122 124 124 127 124 122 124 124 122 127 132 137 137 132 127 127 124 122 124 127
165 163 168 173 168 165 163 163 165 165 165 163 160 163 165 165 163 165 170 175 181 181 175 173 178 181 178 183 178 173 168 168 168 165 163 163 165 163 163 165 165 170 175 175 178 173 168 165 163 163 165 163 163 165 163 163 160 158 155 153 158 155 150 147 142 142 140 140 145 142 142 145 145 142 147 147 147 153 150 147 150 155 153 155 155 150 147 142 142 142 140 145 147 150 150 150 147 150 155 160 163 168 173 178 178 181 183 181 183 183 183 188 193 198 196 198 193 191 186 183 183 186 191 193 191 191 186 186 183 188 193 193 193 193 188 186 186 191 193 198 201 204 201 198 196 193 191 186 181 175 170 168 163 163 163 160 160 155 153 153 147 147 150 147 145 145 142 142 142 142 142 137 132 127 124 119 117 119 117 112 112 114 112 107 104 104 104 104 107 102 104 104 102 102 96 91 89 84 84 89 91 96 102 107 104 99 94 91 89 91 86 86 91 94 94 96 99 99 96 94 99 99 102 107 107 107 102 96 94 99 104 107 109 114 114 114 117 119 119 119 117 119 122 117 114 112 112 112 112 114 114 119 124 127 124 124 127 130 127 132 132 127 132 132 137 140 137 132 132 135 137 142 145 150 155 160 160 160 163 160 155 155 158 160 160 165 165 163 158 163 168 173 170 170 170 175 178 178 183 188 191 191 193 196 193 188 183 178 173 168 168 170 168 163 160 163 168 170 175 175 178 175 170 170 173 170 173 175 175 173 170 168 173 170 168 168 165 165 165 170 170 170 168 163 160 158 153 147 142 140 137 135 132 135 135 132 127 127 122 119 124 119 114 114 114 117 114 114 112 112 117 119 122 122 122 124 130 135 140 142 142 142 147 147 153 153 150 147 147 145 145 150 153 158 158 155 150 150 150 153 158 160 158 153 147 142 137 137 140 140 142 145 145 140 140 142 140 140 135 140 140 135 132 130 127 127 130 127 130 132 137 137 132 132 127 122 117 114 109 107 104 104 102 102 104 104 104 107 109 112 117 119 124 130 135 132 130 132 132 135 137 142 145 150 155 160 158 153 155 155 153 150 147 147 150 150 153 150 145 150 147 145 147 145 150 147 142 142 140 135 130 127 122 127 127 124 122 124 124 124 122 124 130 135 132 132 130 130 124 127 127 127
168 163 168 168 173 170 168 168 168 170 170 168 163 165 170 168 165 170 175 178 181 178 175 175 175 178 175 181 175 170 168 165 165 165 163 168 168 168 168 168 168 170 173 178 181 175 170 168 163 168 168 165 165 163 163 160 155 158 155 153 153 158 155 150 145 145 142 145 147 145 142 142 140 142 147 153 150 155 153 153 153 155 158 160 158 153 147 145 142 142 142 145 145 145 145 147 142 150 155 160 163 165 170 173 175 178 181 183 181 181 183 186 191 193 198 201 196 193 188 188 186 186 188 188 193 191 186 186 186 188 193 191 196 193 188 186 183 188 191 196 201 206 201 198 196 196 191 186 181 178 173 168 163 163 165 163 163 158 158 155 153 153 150 145 142 147 145 140 137 137 140 135 132 127 122 119 119 117 114 112 112 112 107 102 99 102 99 102 102 99 102 102 96 96 91 89 84 84 84 86 89 91 96 102 102 96 94 89 86 89 84 84 86 91 89 91 94 96 94 99 102 104 104 104 107 102 99 96 96 99 104 102 104 109 114 109 112 114 117 114 114 117 117 112 109 112 112 109 107 112 114 119 124 124 124 130 124 127 132 132 130 130 135 132 135 137 137 132 137 137 140 145 145 147 150 155 160 165 163 160 158 158 158 160 163 163 163 163 163 168 173 175 175 175 173 173 173 178 183 186 191 193 196 193 188 183 178 175 170 165 160 168 163 160 155 163 168 170 175 181 181 175 173 173 175 175 178 178 173 175 175 173 178 173 173 168 170 168 168 170 168 168 163 158 158 153 153 147 145 145 140 137 132 135 137 135 132 130 127 124 122 122 119 117 112 112 114 112 107 112 114 117 119 122 119 122 124 130 135 135 137 140 145 142 147 150 147 145 145 145 147 150 150 153 153 147 147 145 145 147 153 155 160 155 150 147 142 137 135 137 137 142 140 142 145 142 140 135 132 137 135 130 130 124 122 124 127 124 127 130 132 132 130 127 124 119 114 109 104 102 99 99 96 96 102 104 104 107 112 114 117 122 127 132 137 132 127 132 132 137 140 142 142 147 153 155 155 153 155 158 153 147 145 142 145 147 150 147 147 147 147 150 153 150 153 147 142 147 142 137 132 130 124 124 127 122 117 122 124 124 122 124 127 130 127 132 132 132 127 130 127 127
163 168 170 173 175 173 173 173 170 173 175 173 168 168 170 170 170 175 178 181 178 181 181 181 178 178 175 175 175 175 173 168 168 168 165 168 170 173 173 173 173 175 178 183 186 181 175 170 168 170 165 160 160 160 158 155 153 158 160 155 153 155 150 150 150 147 147 150 153 147 142 140 140 145 147 150 155 158 158 155 155 155 158 158 158 155 153 147 142 142 142 145 145 142 142 145 145 150 155 160 165 168 168 173 175 181 183 183 181 186 186 186 191 193 198 201 201 198 193 193 188 191 193 193 191 188 188 188 186 186 191 188 193 191 186 181 178 183 188 193 198 201 198 198 196 191 188 183 181 175 173 168 165 165 170 168 165 163 158 155 150 150 147 145 142 145 147 145 140 137 140 140 135 130 124 119 117 114 114 114 112 112 107 102 96 96 96 96 96 96 99 99 94 91 91 89 86 86 86 84 84 89 91 96 96 94 91 86 86 86 86 86 89 89 86 89 89 91 94 96 102 107 104 107 102 102 99 99 99 102 102 96 102 107 109 104 107 109 112 114 112 114 112 107 107 109 107 104 104 107 112 117 122 127 124 127 124 124 127 132 130 132 135 135 137 140 140 135 132 140 142 147 142 147 150 155 160 165 163 158 158 158 163 165 160 160 163 163 165 170 175 181 181 178 178 175 175 178 178 183 188 188 191 191 186 181 178 173 168 163 163 163 163 160 158 160 163 168 173 178 178 173 173 173 175 175 181 178 173 178 178 175 178 175 175 173 170 170 168 170 168 168 163 158 155 150 147 145 145 147 145 140 137 135 137 135 132 135 132 130 124 124 124 122 117 117 112 109 109 112 109 112 114 117 114 117 122 124 130 132 132 135 140 140 142 145 145 145 140 145 147 147 147 153 150 145 142 140 140 142 147 150 155 153 147 142 140 135 130 132 132 137 137 140 140 140 137 135 130 132 130 127 124 119 119 122 122 122 122 124 130 127 124 124 124 119 114 109 104 102 96 96 91 96 99 104 109 109 112 117 119 119 124 130 132 127 127 130 135 135 137 140 145 150 150 153 150 153 150 153 147 145 140 140 142 145 145 145 147 150 147 153 158 155 150 147 145 150 145 140 135 130 127 127 122 117 117 119 122 124 124 130 124 124 124 130 130 130 127 132 130 132
170 170 173 175 181 175 178 175 175 178 181 175 173 173 175 173 175 178 175 178 173 178 181 178 181 175 173 175 175 178 175 170 173 170 168 173 173 175 175 178 175 181 183 188 186 181 175 173 173 168 163 163 160 158 155 155 153 153 155 155 153 153 153 153 155 153 153 153 153 147 145 145 142 147 147 153 153 158 158 158 155 160 160 158 160 158 155 153 150 147 147 150 150 145 145 145 147 150 155 160 165 165 168 170 175 181 181 183 186 188 191 191 193 196 198 201 204 204 198 196 193 196 196 193 193 193 191 188 186 188 188 188 188 193 188 183 181 183 188 191 193 198 198 204 198 193 188 183 178 175 170 168 168 165 170 170 170 165 160 158 153 150 147 142 147 150 147 142 137 135 137 137 135 130 124 122 119 117 117 117 114 112 107 104 99 96 96 99 99 102 96 94 91 89 89 89 89 91 89 84 84 86 89 94 94 96 91 89 91 91 89 86 89 89 86 86 89 94 96 99 99 102 102 107 104 104 102 99 99 104 102 99 99 102 107 102 102 104 107 109 109 109 107 102 102 102 104 102 104 109 114 119 122 122 127 130 127 124 124 130 132 135 137 137 140 142 140 137 135 137 140 142 142 142 147 153 158 160 165 163 163 160 160 160 163 158 163 165 170 175 181 186 186 181 181 181 175 181 181 186 186 191 193 188 183 181 175 170 165 163 163 165 160 158 158 160 165 170 175 175 178 173 173 175 178 178 181 175 173 175 178 178 175 173 173 175 173 175 170 175 173 168 163 160 155 150 147 147 150 153 150 145 140 140 135 135 137 135 135 132 130 127 127 124 119 117 114 112 112 109 104 109 109 112 112 112 117 122 124 127 127 132 137 135 137 140 142 140 140 140 142 145 150 147 145 140 137 137 140 140 142 147 150 147 145 142 137 132 130 130 135 135 140 140 135 135 132 132 127 127 124 122 119 117 119 119 117 117 119 122 124 124 122 127 124 122 117 112 107 104 99 94 94 94 99 102 104 109 112 114 119 119 124 130 135 132 127 130 132 137 137 140 142 145 147 147 145 147 145 147 142 140 142 142 147 145 145 147 153 153 150 153 158 155 155 150 150 150 147 142 137 135 132 130 124 119 117 117 119 124 127 124 119 124 124 127 124 127 130 132 130 130
168 170 170 173 175 173 173 178 178 175 181 181 178 175 175 175 181 181 175 173 170 173 175 175 178 175 170 175 178 181 175 170 170 170 173 178 178 181 181 181 181 183 183 186 181 178 173 173 168 168 163 163 160 163 160 160 158 158 160 155 153 153 153 155 158 155 153 150 153 150 145 147 147 150 150 153 150 155 158 160 158 163 158 158 160 158 158 155 153 153 147 153 153 150 147 150 150 153 155 158 163 168 168 173 178 183 186 186 186 188 191 193 196 201 198 198 201 206 204 201 198 198 201 198 198 193 193 188 188 191 193 193 193 188 186 181 181 186 188 191 191 193 196 198 196 193 188 183 181 178 173 173 173 168 173 170 170 165 163 158 153 153 147 142 142 147 145 140 135 135 135 135 130 130 127 124 122 119 122 122 117 112 107 102 96 96 99 102 99 99 94 94 89 91 89 84 84 86 86 81 81 86 84 89 89 91 94 94 96 94 91 91 91 89 86 89 94 96 99 96 96 96 99 102 102 107 104 102 102 102 104 102 99 104 102 102 99 104 104 107 109 104 102 96 96 96 99 99 104 109 114 119 119 122 124 130 127 127 127 127 130 132 137 142 145 142 140 137 135 140 140 140 142 147 150 155 160 163 168 165 168 163 160 160 158 158 163 168 170 175 181 186 183 181 175 175 175 175 178 181 183 186 191 186 181 175 170 168 165 165 165 163 163 160 158 163 168 170 170 170 175 173 173 175 175 178 178 178 178 181 178 175 175 178 175 178 178 178 175 175 175 170 165 160 158 153 153 150 150 155 153 147 145 140 137 137 140 137 137 135 130 130 127 122 117 114 112 109 109 107 104 104 104 107 109 112 114 119 119 122 124 127 132 132 132 135 140 137 142 140 140 142 145 145 142 140 140 140 140 140 140 142 147 145 145 140 137 132 127 127 132 137 135 137 132 130 127 127 124 127 124 119 119 117 117 117 117 117 114 117 119 119 122 122 122 119 122 117 112 107 102 96 94 99 104 107 107 107 109 112 114 119 122 127 132 132 132 132 132 135 137 135 140 140 142 142 140 142 140 142 140 140 142 142 142 140 142 145 150 155 155 153 158 158 155 153 155 153 150 145 140 137 132 127 124 119 117 114 117 119 122 124 119 124 130 127 127 130 132 137 135 132
165 170 175 175 178 173 178 178 178 175 178 178 181 178 178 181 183 183 178 173 170 170 170 170 175 173 170 173 175 178 175 170 168 173 178 181 181 186 183 186 186 186 186 183 178 173 173 168 163 163 163 160 155 160 165 163 163 163 160 155 150 150 150 150 153 158 153 150 155 150 147 147 147 150 155 150 150 153 155 160 155 158 155 155 158 160 163 158 158 158 153 155 155 155 153 153 155 155 155 160 163 163 168 173 178 183 188 191 188 191 193 193 196 201 198 196 198 204 204 206 204 201 204 198 196 196 198 193 191 196 198 196 193 191 191 186 181 186 188 191 186 188 193 193 198 196 191 188 183 181 178 175 175 173 168 168 168 163 165 160 155 150 145 145 147 145 145 140 135 137 135 130 127 130 130 127 122 119 122 122 119 114 109 104 99 99 96 96 96 94 89 89 84 86 84 81 79 81 81 81 81 84 79 84 84 86 91 96 99 96 94 94 91 94 91 94 96 102 102 99 96 99 104 102 102 104 104 102 102 96 102 99 99 102 104 102 96 99 99 102 102 96 96 91 91 94 94 99 102 107 112 117 114 119 124 127 124 124 124 130 135 137 140 145 147 147 145 140 140 145 142 142 145 150 153 158 163 168 173 168 165 163 160 158 158 160 165 170 173 175 178 183 178 181 178 178 181 175 181 186 186 186 186 183 181 175 170 170 170 170 170 168 165 163 160 163 165 168 170 173 170 175 173 173 175 178 178 181 183 186 183 181 175 181 181 181 178 178 175 173 178 173 168 165 160 155 158 153 153 158 155 150 147 142 140 140 137 140 137 132 132 132 130 124 119 119 114 114 112 109 104 102 102 107 109 114 119 122 122 119 119 124 127 127 130 135 137 137 140 140 140 140 140 140 137 140 142 145 145 140 140 140 142 140 140 142 140 135 132 127 130 135 132 132 127 124 122 122 124 122 119 122 119 117 114 114 112 117 112 112 117 117 117 119 119 117 119 119 114 109 104 102 96 99 102 107 109 109 109 114 117 119 122 127 132 135 135 132 135 140 140 137 140 137 137 137 135 137 135 137 135 140 142 145 140 137 137 142 147 150 155 155 155 153 150 155 155 153 153 147 142 137 132 132 130 124 119 114 112 117 119 122 124 127 127 130 132 130 132 132 135 132
173 175 170 178 173 175 173 178 175 178 181 178 181 178 181 181 183 186 181 175 173 170 170 175 175 175 173 173 178 181 178 173 168 170 175 175 178 183 188 186 186 183 183 181 178 173 168 163 160 158 158 160 158 160 163 168 165 165 160 158 153 153 153 150 150 153 150 153 153 153 153 150 147 153 155 155 153 155 158 158 153 155 155 160 163 165 165 163 163 160 158 155 158 155 158 155 160 155 155 160 165 165 165 170 175 181 186 188 191 191 193 193 196 196 193 193 198 204 206 209 204 204 204 201 196 196 196 196 196 201 196 193 193 193 188 183 183 188 186 186 183 183 188 193 196 198 196 191 188 186 183 181 181 175 170 165 165 163 163 158 153 150 150 147 147 145 147 145 140 137 137 132 130 130 132 132 127 124 124 119 117 112 107 102 99 99 96 94 91 89 86 84 79 84 79 76 73 79 79 79 76 79 76 79 79 81 86 91 96 96 96 96 94 99 96 94 99 102 99 94 94 99 99 99 99 102 104 104 99 96 102 102 102 102 99 96 91 96 102 102 96 94 91 89 86 89 94 99 102 107 112 117 117 117 122 127 122 124 130 132 137 140 140 145 150 150 147 145 145 147 147 145 150 153 158 163 168 170 173 173 170 168 163 160 160 165 160 168 173 170 173 178 178 178 181 183 181 181 186 188 188 186 183 181 178 173 175 170 175 175 175 173 170 170 168 165 170 170 173 173 173 173 173 175 175 178 181 181 183 188 186 186 181 183 181 178 173 175 173 173 173 175 170 168 163 160 163 158 155 155 155 153 150 147 142 142 137 140 137 135 137 137 132 127 122 117 114 119 114 112 107 102 102 107 109 114 119 124 119 119 122 124 127 130 130 130 135 140 135 135 140 137 137 140 137 140 140 145 147 142 140 137 140 137 137 140 137 132 127 127 127 130 130 127 122 119 117 117 119 119 117 119 122 117 114 112 109 112 109 109 114 112 112 114 114 114 117 119 117 112 107 102 96 102 99 104 104 104 109 112 117 122 122 124 130 132 135 135 137 140 140 137 135 132 132 130 130 132 132 135 132 135 140 145 142 140 135 140 142 147 150 150 150 150 147 150 153 155 153 147 142 140 135 132 127 122 119 114 114 114 114 117 122 122 124 127 130 127 127 132 132 132
168 173 173 175 173 170 170 173 170 175 175 175 178 178 183 183 183 181 178 178 173 170 175 181 178 181 178 175 178 181 181 175 170 173 175 178 181 186 183 183 188 188 186 183 178 173 168 163 160 158 160 160 158 160 165 170 170 168 163 158 155 153 147 145 153 150 150 150 153 150 155 153 153 155 155 155 153 155 158 153 150 150 155 160 165 168 170 168 168 163 160 155 160 158 160 158 163 160 158 160 165 168 168 168 173 175 181 186 191 191 191 196 198 196 196 198 204 209 209 206 206 206 204 201 196 198 196 198 196 198 201 196 191 191 188 183 188 188 183 183 183 181 186 188 193 196 198 193 191 191 188 183 178 173 168 168 168 168 163 158 155 150 150 153 153 150 153 150 145 140 142 137 135 132 132 132 130 127 127 122 117 114 109 104 99 96 94 94 96 91 86 84 79 81 76 71 71 76 73 76 73 73 73 76 81 84 86 91 91 91 91 91 89 94 99 96 99 104 102 96 94 96 94 96 94 96 99 99 96 96 96 99 96 96 99 94 89 91 96 96 91 89 86 84 84 89 94 99 107 109 114 119 119 122 117 122 122 127 132 137 142 142 145 150 155 150 150 150 150 147 150 150 153 158 163 168 173 175 178 175 173 170 165 163 165 165 163 165 170 175 175 181 178 178 175 181 183 183 188 188 188 188 183 181 178 173 173 175 178 181 178 178 175 175 173 170 173 173 175 173 173 170 170 170 173 173 178 183 183 186 181 181 178 181 175 173 168 173 175 178 178 181 175 170 168 163 165 163 160 158 158 158 155 150 147 142 142 142 140 140 135 135 130 127 122 117 117 114 112 107 109 107 104 104 107 109 114 119 122 124 124 130 124 127 127 127 130 135 130 137 142 140 137 137 140 140 140 142 145 145 140 137 135 135 132 135 132 127 122 124 122 127 127 124 119 114 114 114 114 114 112 117 119 117 112 107 107 109 109 109 109 107 107 112 117 117 122 117 117 112 109 104 99 102 99 102 104 109 109 112 117 119 122 127 132 130 132 137 140 145 140 135 132 127 127 127 127 127 127 130 130 135 137 142 140 137 135 137 140 142 145 150 150 147 142 145 147 153 153 150 145 142 137 135 132 127 122 119 119 114 112 114 119 124 127 122 127 122 122 127 130 135
168 170 173 173 175 170 170 173 170 170 170 173 175 175 181 183 175 178 178 178 175 175 181 183 183 183 181 178 178 181 175 173 170 175 181 178 183 186 186 188 191 186 186 186 181 175 170 165 160 160 165 163 160 160 165 170 173 170 165 160 155 153 150 147 150 153 153 153 153 150 153 153 155 160 158 155 150 150 153 153 150 147 150 155 160 165 168 170 165 163 158 155 155 158 155 155 158 158 158 160 165 170 173 170 173 175 181 183 188 193 193 196 201 201 198 204 209 211 211 209 209 206 204 204 201 198 198 201 196 198 198 196 191 193 191 186 186 191 186 183 181 181 186 191 191 191 196 196 193 191 186 181 175 170 170 170 170 170 168 163 158 153 153 158 153 153 155 155 150 145 147 142 137 135 135 135 132 130 127 124 122 117 112 109 104 102 99 96 94 91 89 84 81 79 76 76 71 73 68 76 73 71 73 76 76 81 86 91 89 89 89 86 86 89 94 96 99 102 99 94 91 94 91 91 89 91 94 94 94 99 96 96 94 96 96 91 89 89 91 91 86 84 81 79 79 86 91 96 102 107 112 114 117 117 114 119 122 127 132 135 140 145 147 147 153 153 153 153 153 150 150 150 155 160 165 168 173 178 181 178 175 173 168 163 163 168 165 170 170 173 173 178 175 173 173 175 181 186 186 183 186 186 183 178 181 178 175 181 183 183 183 181 181 181 178 175 175 178 173 170 170 168 168 168 168 173 178 181 178 181 175 175 173 175 173 168 168 170 175 181 181 183 178 175 170 168 170 165 163 160 158 155 153 150 147 142 142 140 140 140 135 130 127 127 122 117 114 112 107 104 104 109 104 102 102 107 109 114 119 124 124 127 124 124 122 122 127 132 132 137 140 142 137 135 137 137 135 140 137 140 135 132 130 132 127 130 127 124 119 119 122 124 124 119 114 109 109 112 112 109 109 112 117 117 112 109 104 107 104 107 104 104 104 107 112 114 119 122 117 114 112 107 104 99 99 104 99 104 104 109 112 114 117 122 127 122 127 132 137 140 137 132 127 124 122 122 124 130 130 132 135 132 135 137 137 137 140 140 140 145 140 145 147 145 145 147 147 150 150 147 147 145 142 137 132 127 122 119 117 114 109 112 117 122 124 122 122 124 122 124 130 135
173 170 175 178 178 175 175 173 168 170 173 175 175 178 181 178 178 178 178 183 178 181 186 188 186 183 178 178 178 178 178 173 173 178 183 181 183 183 188 191 188 188 191 188 183 175 173 168 163 163 165 165 163 160 165 170 175 170 168 163 158 155 155 150 150 153 158 158 158 155 158 153 153 158 158 155 150 153 150 150 145 145 150 155 158 163 168 165 163 158 155 153 150 153 150 153 155 158 160 165 170 175 175 173 178 178 181 186 188 191 193 193 198 198 201 206 211 211 211 209 204 204 206 204 198 196 201 201 196 196 196 196 193 191 186 183 183 186 191 186 183 186 188 188 188 188 191 196 193 188 183 178 173 170 173 175 170 170 168 163 160 155 155 160 158 158 158 158 153 150 150 147 142 137 137 137 135 132 127 127 127 122 117 112 107 104 102 96 94 91 89 86 81 79 79 73 76 73 71 73 76 71 76 81 79 81 86 89 86 84 81 81 81 86 89 94 96 99 99 94 89 94 91 86 86 89 94 91 89 94 94 91 89 91 91 94 89 86 89 86 81 79 76 76 79 84 89 94 99 104 109 114 114 112 114 119 122 130 135 137 142 147 147 147 147 150 153 158 158 155 155 153 158 163 165 170 175 181 181 181 178 175 170 168 165 165 168 168 165 173 173 175 170 170 170 175 178 183 181 181 181 183 178 175 178 178 181 183 188 188 188 186 186 186 183 181 178 181 178 173 173 170 165 165 168 173 175 178 175 175 175 173 170 173 168 165 170 175 178 183 183 183 181 175 173 173 175 170 168 165 160 155 153 155 150 145 140 137 135 135 132 130 127 122 119 117 112 107 104 99 102 104 107 104 102 104 107 112 114 119 122 122 124 122 124 127 124 127 132 135 137 137 135 132 137 137 135 135 132 137 132 130 127 132 127 130 124 119 117 122 124 122 119 119 117 112 107 107 112 109 107 112 117 112 109 107 102 102 102 102 102 99 99 102 107 112 117 119 117 112 107 107 104 102 102 102 96 99 99 104 107 109 112 117 122 119 122 127 130 135 135 130 127 124 122 122 127 124 124 130 135 132 130 135 135 132 135 137 142 140 137 140 142 142 145 145 147 153 153 150 153 147 142 137 132 130 124 122 117 114 109 114 117 122 124 127 124 130 127 127 130 135
168 170 175 178 181 175 170 170 168 168 170 170 173 175 175 178 178 181 183 181 181 186 188 183 183 186 183 183 178 178 175 173 173 175 181 181 181 181 183 188 191 191 196 188 186 181 175 170 165 165 165 165 163 165 165 168 170 168 165 160 158 160 158 153 153 158 163 163 160 160 158 158 158 160 158 155 153 155 153 150 147 147 153 153 158 163 165 163 160 155 153 150 145 150 147 150 153 158 163 168 173 178 175 175 175 181 183 188 188 191 188 188 193 196 201 204 206 206 209 209 206 206 204 201 196 196 201 206 201 201 198 196 191 188 188 188 188 188 191 191 186 191 193 191 191 188 191 193 193 188 183 178 173 170 173 175 175 170 168 168 163 160 160 163 160 163 160 160 158 155 155 153 147 142 140 135 132 130 130 132 130 127 122 119 114 109 107 102 96 94 91 86 81 76 76 73 76 73 71 71 71 68 73 79 79 81 84 84 81 79 79 76 76 81 84 89 91 94 94 91 89 89 86 81 81 86 89 89 86 89 89 86 86 91 94 91 86 84 84 81 76 73 71 76 79 86 89 94 99 104 109 109 109 112 117 119 122 124 130 135 140 145 145 145 147 150 155 155 160 158 158 158 163 165 170 175 181 183 181 186 181 175 175 170 168 170 168 168 168 173 173 173 170 165 168 173 178 181 175 175 175 178 175 175 175 178 183 188 193 193 188 191 191 191 188 186 183 183 181 178 173 173 168 168 173 175 178 178 173 173 178 173 170 168 163 165 170 173 178 183 186 181 181 178 175 178 181 175 173 170 165 160 158 153 147 145 140 137 137 132 130 127 127 122 117 112 109 104 99 99 102 107 104 104 107 102 102 107 112 114 117 117 119 119 122 124 122 122 127 130 135 132 132 132 135 132 130 130 127 132 132 132 127 127 127 127 122 119 117 119 124 122 119 117 112 107 104 104 109 109 107 109 112 109 107 102 99 99 96 96 96 94 94 99 104 107 112 117 112 107 104 104 102 104 99 96 94 91 94 99 104 104 107 112 117 114 117 122 124 130 130 132 127 122 122 122 122 127 127 130 130 127 124 130 130 127 130 135 137 135 132 135 137 142 142 145 150 150 153 155 155 150 145 140 137 132 127 127 124 119 114 117 122 122 122 127 130 132 132 130 130 135
178 173 178 181 181 178 173 173 173 173 173 173 178 178 178 183 181 183 186 183 183 186 186 186 188 186 188 186 183 183 178 178 175 175 178 183 183 183 188 193 193 193 196 191 186 183 181 175 170 168 165 170 168 168 168 168 165 165 163 160 163 165 163 158 158 160 165 165 163 160 160 160 160 158 158 155 153 155 153 150 147 153 155 158 160 163 163 163 163 158 155 150 145 150 147 150 155 158 163 168 173 175 170 175 178 181 186 186 186 186 191 188 188 193 196 198 201 206 209 209 206 209 209 206 201 201 204 209 206 206 204 198 196 191 193 193 193 191 193 193 191 193 193 196 193 191 193 188 188 186 181 181 175 173 175 181 175 170 168 165 165 160 165 163 160 160 158 158 153 158 160 155 153 147 145 140 137 135 135 137 135 132 130 124 119 114 112 107 102 94 91 86 81 79 76 76 79 76 73 68 71 68 73 76 79 81 81 81 79 73 73 73 73 76 79 84 86 91 89 86 89 89 86 84 81 86 84 84 81 84 86 81 86 91 91 94 89 86 81 76 71 71 68 73 81 86 91 94 99 104 109 107 107 109 112 117 124 130 132 137 142 142 142 145 150 153 158 158 163 163 163 163 165 168 173 178 178 181 186 183 183 178 178 175 170 173 173 168 170 173 175 170 168 168 170 173 175 175 173 170 175 175 175 178 178 183 188 193 193 198 193 196 193 196 193 191 188 186 181 178 175 175 170 173 175 181 178 181 175 178 175 170 168 165 163 165 170 173 178 183 188 183 181 183 181 183 181 178 175 175 170 163 158 155 150 145 140 140 142 137 132 132 130 124 122 117 112 107 104 102 104 102 99 99 102 102 96 102 107 112 112 112 112 117 117 117 117 114 119 124 130 127 130 127 127 127 124 124 124 127 130 130 124 130 127 127 124 122 117 117 119 119 117 119 114 112 107 107 109 109 107 107 107 104 104 104 99 99 102 96 99 94 96 96 102 107 112 112 109 104 99 99 99 99 96 94 94 94 96 99 104 109 109 112 114 109 112 117 122 124 124 127 122 124 124 127 127 130 127 130 130 127 124 130 132 127 127 132 135 132 132 137 142 142 142 147 147 150 153 155 158 153 147 145 140 135 132 132 127 124 119 122 124 124 122 127 132 137 137 135 132 130
181 173 175 178 178 173 173 175 175 178 175 175 181 178 181 183 186 186 183 183 186 188 188 188 191 191 193 191 188 186 183 186 181 181 183 188 183 188 191 193 198 196 191 191 188 188 183 181 175 170 170 173 170 165 165 170 168 168 165 160 165 170 168 163 158 160 160 160 160 160 160 163 163 160 160 160 158 155 153 153 153 158 160 160 165 163 163 163 160 155 155 153 150 147 147 147 153 158 163 168 173 173 173 175 178 183 183 186 183 186 188 193 191 188 191 193 196 201 204 209 211 209 204 209 206 206 206 206 204 204 204 201 201 196 196 198 198 193 191 191 193 196 196 198 196 191 188 186 183 183 183 186 181 175 181 175 173 170 168 168 168 165 160 160 160 160 155 155 155 158 160 160 155 153 147 142 140 137 137 142 140 137 135 130 124 119 117 112 104 99 94 89 84 81 81 79 76 76 71 68 68 71 73 76 81 84 84 79 73 71 68 71 73 76 76 79 84 86 86 81 84 86 86 84 81 84 81 79 76 81 81 81 84 86 86 89 86 81 76 73 71 66 68 73 81 84 89 94 99 104 104 107 112 112 117 119 122 127 132 135 140 140 140 145 150 153 158 163 158 160 165 165 168 173 175 181 178 178 181 183 188 183 181 178 175 178 173 173 170 170 175 173 170 173 173 175 170 170 170 170 173 175 173 178 181 186 191 196 198 201 196 201 198 198 198 193 191 186 186 181 181 175 173 173 178 181 181 178 178 181 178 173 168 165 163 165 170 175 181 183 186 181 181 186 186 186 183 183 181 178 173 168 160 158 153 147 142 142 140 135 132 130 127 127 122 119 117 112 107 107 102 104 99 99 96 99 96 99 102 107 109 107 109 112 112 114 112 109 114 117 122 122 122 122 122 122 119 119 119 119 124 124 119 122 122 124 122 117 117 117 114 114 112 117 112 109 107 107 107 107 104 107 104 104 104 107 104 102 104 102 102 99 99 99 99 104 107 109 104 99 94 94 99 96 94 94 96 96 99 102 102 107 109 114 109 104 107 112 117 119 119 124 119 124 127 132 130 135 130 127 127 130 127 130 132 127 127 132 132 135 137 142 145 142 145 147 150 155 153 155 155 153 147 145 145 140 137 137 132 127 124 127 127 130 127 132 137 142 140 137 132 130
186 173 175 175 173 173 175 181 181 178 181 178 178 181 186 186 191 191 188 186 191 193 191 191 196 196 198 196 193 191 188 191 186 186 188 191 188 188 193 188 193 198 196 193 191 193 188 183 181 175 175 175 173 168 165 165 168 165 163 163 168 168 165 163 160 160 160 158 155 155 155 160 160 158 155 155 153 155 158 153 158 163 165 163 160 160 160 158 155 158 155 153 150 150 147 147 150 155 158 163 168 170 173 178 183 186 186 181 181 181 186 188 188 183 186 188 191 196 201 206 209 204 204 206 206 209 209 209 206 206 206 204 201 196 201 201 201 198 193 188 191 191 196 196 193 188 186 186 188 188 186 188 183 181 181 178 175 175 170 168 165 165 160 163 163 163 160 155 155 158 163 163 158 155 153 147 142 142 142 145 142 140 137 132 127 124 119 114 107 102 96 91 86 84 86 81 79 76 76 71 71 73 73 76 81 84 79 76 71 68 63 66 71 71 76 73 79 81 81 79 79 84 81 81 84 81 76 76 71 76 76 81 81 81 84 84 81 76 73 71 68 66 66 71 79 84 89 91 96 102 107 109 114 117 122 122 127 130 132 132 137 137 142 145 150 155 160 163 163 165 168 170 173 175 181 178 178 181 186 186 183 181 181 175 173 173 168 173 170 175 178 175 175 178 175 173 168 168 173 170 170 170 170 175 181 186 191 196 201 201 201 204 204 204 201 198 193 191 191 186 183 178 175 178 181 183 183 181 183 186 181 175 170 168 168 170 175 175 181 183 183 183 186 183 183 186 188 183 181 175 173 168 163 160 155 150 147 147 142 140 135 135 130 124 119 117 112 109 109 104 99 99 96 94 94 94 94 99 99 102 104 104 104 109 107 109 107 104 107 112 117 117 114 114 114 114 112 114 112 117 117 119 114 117 119 122 117 117 117 117 114 109 107 112 107 104 104 104 104 102 99 102 104 109 109 109 107 102 102 107 107 102 102 99 99 102 102 107 102 96 94 94 96 99 96 99 102 102 99 99 99 104 104 109 104 99 104 107 112 114 117 119 119 124 127 130 135 130 127 127 132 127 127 130 135 130 127 130 135 137 140 145 150 145 145 147 147 150 150 153 158 153 147 142 142 145 142 142 137 132 127 130 132 132 130 135 137 142 145 140 137 135
175 175 178 175 178 178 181 181 186 183 186 183 183 181 186 188 193 196 193 191 193 198 196 196 201 201 204 201 196 196 193 193 191 191 188 193 191 191 191 191 191 196 198 196 193 196 193 188 183 181 181 175 173 170 168 168 168 168 168 168 173 168 165 163 160 160 158 153 153 153 150 155 155 158 153 150 150 153 158 158 163 165 170 165 160 158 155 153 153 155 153 150 147 150 150 150 153 155 158 160 163 165 170 173 178 181 181 178 175 178 183 186 183 181 181 183 188 193 196 201 204 206 209 211 209 211 209 206 204 204 201 198 196 196 198 198 198 196 191 188 191 193 198 196 191 191 191 188 191 188 191 186 186 183 183 181 175 175 173 168 163 165 163 163 160 160 160 155 155 160 160 158 158 160 155 150 145 147 147 147 145 145 142 137 132 127 122 114 109 104 99 96 91 86 89 84 81 81 79 73 73 73 73 79 81 84 79 73 71 66 63 68 66 68 71 73 76 81 81 79 79 84 84 84 81 81 81 76 73 76 76 76 81 81 79 79 76 71 68 68 66 66 68 73 79 81 86 91 96 102 104 109 112 114 119 124 130 135 135 137 135 135 137 142 147 153 158 160 160 165 168 170 175 175 181 183 181 186 188 188 186 181 178 175 175 170 168 168 168 173 175 178 178 181 178 175 170 173 173 173 168 168 170 173 178 183 188 193 196 198 204 209 206 209 206 204 198 193 193 188 188 183 181 183 186 186 186 181 183 183 181 175 173 173 170 175 178 181 186 186 186 183 183 181 181 186 186 181 178 175 175 173 165 163 158 153 153 150 147 142 140 137 132 127 122 117 114 112 107 102 96 96 91 91 89 89 89 94 94 96 102 104 104 104 104 104 102 102 104 104 109 112 109 107 109 109 107 109 109 112 112 114 112 112 114 117 114 114 112 114 109 104 102 107 109 109 107 104 104 99 96 96 102 104 104 102 104 104 102 107 109 104 104 102 102 99 96 102 99 96 94 96 99 99 99 104 104 107 104 102 99 102 102 104 99 96 99 102 107 109 112 114 114 119 122 127 130 127 124 124 127 124 130 132 132 132 132 132 135 137 142 145 150 147 145 145 142 145 147 153 155 153 150 145 147 147 145 145 142 137 132 135 135 132 132 135 137 142 140 145 142 137
181 178 181 178 183 183 183 186 191 188 188 186 188 186 191 191 196 201 196 193 198 201 201 201 201 198 198 204 198 201 198 198 196 193 191 193 191 191 191 191 191 196 201 198 196 196 196 191 188 186 181 181 175 173 170 168 170 173 173 170 175 170 168 165 165 163 160 155 153 147 147 150 150 153 150 147 145 153 158 160 163 165 170 170 165 160 155 155 153 153 155 150 147 145 145 150 153 155 158 160 165 168 165 170 175 175 181 181 178 181 181 183 178 175 178 178 183 188 191 196 201 201 204 206 206 209 211 206 204 201 198 196 193 193 196 196 193 193 191 193 196 198 201 198 196 193 196 193 193 193 188 186 188 188 188 183 178 173 173 168 163 168 165 165 160 160 155 150 158 158 158 158 153 155 158 155 150 150 153 153 150 150 147 140 135 130 124 117 114 109 104 99 94 91 91 86 84 84 81 79 79 79 79 81 81 81 79 79 73 68 66 66 61 63 68 73 76 79 79 81 84 89 86 86 84 84 79 79 73 79 79 79 76 79 73 73 73 73 71 68 68 68 73 79 81 84 84 91 96 99 104 109 114 114 117 122 124 130 135 135 140 140 137 142 147 153 158 163 165 168 170 175 178 181 183 188 186 188 188 186 183 181 178 178 175 170 165 165 168 170 175 178 183 181 175 170 168 170 170 170 168 168 173 175 181 186 188 193 196 198 204 206 206 206 204 206 201 196 193 188 193 188 183 188 191 186 186 183 186 181 178 178 178 178 175 181 183 186 186 191 191 186 188 183 183 183 183 178 175 175 173 173 170 165 160 155 155 155 150 147 142 140 132 127 122 117 112 109 104 102 96 96 96 96 94 89 94 94 91 94 96 99 104 104 99 99 96 96 99 102 104 104 102 102 102 102 102 104 104 107 109 109 107 109 109 112 114 112 107 109 104 102 102 104 109 107 102 109 107 102 99 99 99 99 102 99 102 102 96 102 107 109 104 107 104 102 96 96 96 94 91 94 96 102 102 107 109 109 107 102 102 102 99 99 94 91 94 99 102 107 109 109 112 117 119 124 130 130 124 122 124 124 127 132 135 135 135 135 140 137 140 142 147 147 147 145 145 147 150 153 158 155 153 150 153 150 147 147 142 140 137 137 135 135 135 135 135 140 140 142 142 140
178 183 186 183 188 186 186 188 191 193 188 191 191 188 191 191 196 198 198 198 201 206 201 198 198 198 201 204 201 201 204 204 198 196 193 193 191 193 191 191 191 193 198 204 198 198 198 193 191 191 186 181 178 173 170 170 168 168 173 168 170 168 163 163 163 160 158 153 153 147 142 147 145 150 147 147 147 147 153 158 158 163 168 168 163 158 155 150 147 150 153 150 145 142 142 147 147 153 158 160 165 168 163 165 170 173 175 175 175 181 183 181 175 173 173 175 178 183 186 191 196 196 201 204 201 204 209 211 206 201 198 193 188 193 191 191 191 191 196 196 201 201 201 204 201 198 193 191 191 191 188 191 188 191 186 181 175 175 173 170 168 170 165 165 160 158 155 153 153 155 155 155 155 158 163 158 153 155 155 153 153 147 145 145 137 132 124 119 114 109 104 102 96 94 91 86 86 86 86 84 81 81 81 79 79 84 81 76 71 66 66 63 63 68 71 76 79 84 84 86 89 94 89 84 84 86 84 81 76 79 76 79 73 73 71 68 71 73 68 68 71 71 76 81 86 89 86 89 94 99 104 109 112 114 117 119 122 124 130 130 135 140 140 145 150 155 160 165 168 173 173 178 183 183 186 188 191 193 193 188 186 183 181 178 175 170 165 168 168 170 175 178 178 181 175 170 168 173 173 175 173 168 168 175 181 183 188 193 198 201 201 206 206 209 204 204 198 198 193 193 196 191 188 193 196 191 186 183 183 178 178 178 181 183 181 186 186 186 188 193 196 191 193 188 188 186 186 181 178 178 173 170 168 163 160 158 160 158 153 150 145 140 132 127 122 117 114 109 104 99 99 96 94 99 96 91 91 91 86 89 94 99 99 99 94 94 91 91 94 96 99 99 96 96 96 96 99 99 99 102 104 104 102 104 107 112 109 107 104 107 102 96 99 104 107 107 104 104 104 107 102 99 99 102 96 94 96 99 99 104 107 107 109 104 104 104 102 96 91 89 91 96 99 104 104 109 109 112 109 104 104 102 99 96 91 89 91 94 96 102 107 112 114 119 119 124 127 132 127 122 119 124 130 132 132 135 140 137 142 140 137 137 142 145 147 150 150 153 150 155 153 153 155 155 153 155 153 147 142 145 142 140 137 140 135 135 135 135 140 140 137 140
191 188 191 188 193 191 191 193 191 193 193 196 193 193 196 196 196 201 204 201 196 201 201 198 198 201 204 206 204 204 209 204 201 201 196 191 191 191 188 191 193 198 201 206 204 198 198 193 191 191 186 181 175 173 173 168 165 165 168 168 170 170 165 160 160 158 153 150 150 145 142 142 142 145 145 150 150 145 147 153 155 158 163 163 163 158 155 150 150 155 153 150 145 145 145 145 147 150 155 160 165 165 160 163 165 168 170 173 175 178 181 175 173 175 175 175 173 178 183 188 191 193 198 198 196 198 204 209 204 198 193 193 191 191 188 188 188 191 196 198 204 198 201 201 204 201 196 191 188 186 186 188 186 186 186 181 178 178 178 173 168 168 168 168 163 158 153 153 147 150 155 158 160 163 163 158 158 155 155 150 147 145 140 145 140 132 127 122 117 112 107 104 99 96 94 89 91 91 89 86 86 86 86 81 79 81 79 76 71 71 71 68 63 66 68 73 79 84 89 89 91 94 89 84 79 81 84 84 81 76 73 73 68 68 66 66 68 71 71 71 71 76 79 84 89 94 91 89 91 96 99 104 109 112 114 117 117 122 124 127 130 135 137 142 150 155 158 163 168 170 173 175 181 186 188 193 193 196 196 191 188 186 183 178 175 175 170 170 168 170 175 178 181 178 173 170 168 173 178 178 178 173 170 173 178 183 188 193 196 201 204 204 201 204 201 198 196 193 193 196 193 193 193 196 198 196 191 186 181 178 183 181 186 188 183 188 188 188 193 196 198 193 196 191 191 186 188 183 181 175 173 168 163 160 155 160 165 160 155 150 145 137 132 127 122 114 112 107 102 102 102 96 94 94 91 89 86 89 86 86 89 94 96 94 89 89 89 86 89 91 96 96 91 94 91 91 94 94 94 96 99 102 102 102 102 107 109 104 104 107 107 102 102 104 107 112 109 109 107 109 107 104 102 96 94 89 91 96 99 104 107 109 109 107 107 107 102 99 94 89 91 96 102 104 107 107 104 109 114 109 104 102 96 91 91 86 86 91 96 99 104 109 112 114 117 122 127 127 127 124 119 124 127 132 132 137 140 137 142 137 132 135 140 145 150 153 153 153 147 150 153 153 158 158 158 155 150 150 147 147 147 142 140 137 132 137 140 137 142 140 137 135
183 188 188 191 193 196 191 193 191 196 198 196 196 198 201 198 193 198 198 198 196 198 196 196 196 198 204 206 206 206 206 201 198 198 198 193 191 188 188 191 196 201 206 209 209 204 201 198 193 188 186 181 175 175 170 165 165 165 168 173 175 173 168 165 163 160 155 153 147 145 142 145 142 142 145 145 145 140 142 147 150 155 158 163 160 158 153 150 153 158 155 153 147 147 147 145 145 150 155 160 165 163 160 160 165 165 168 173 173 175 175 173 170 170 170 173 173 178 178 183 186 191 193 198 198 204 209 204 198 193 191 191 191 186 186 186 188 193 191 196 201 198 196 198 204 198 196 191 188 188 186 186 181 183 183 181 178 181 178 173 173 173 168 165 160 155 153 155 150 153 155 160 160 163 160 155 155 153 153 150 150 145 142 142 137 135 130 127 122 117 112 107 102 102 96 91 91 91 91 91 91 91 91 86 84 79 76 71 66 71 68 66 66 66 68 71 76 79 84 89 91 91 89 84 79 81 84 84 79 73 71 71 68 71 66 66 68 73 76 73 73 76 79 81 84 89 91 89 89 91 96 102 104 107 112 114 117 117 122 127 132 135 142 147 153 158 160 165 170 175 175 178 183 188 193 188 193 196 193 191 186 186 186 181 181 178 175 173 170 170 175 175 178 181 175 170 170 173 173 178 181 175 173 173 178 183 188 193 196 198 204 198 196 198 196 198 196 198 196 201 198 196 198 201 201 196 191 188 183 181 183 186 191 191 188 188 188 191 196 198 196 193 191 188 188 188 188 183 181 175 173 168 163 160 158 163 163 158 153 147 142 137 132 124 119 117 112 107 104 104 107 102 96 94 94 91 86 86 84 84 84 89 91 89 84 84 86 81 84 86 91 91 86 89 89 86 89 91 89 91 94 96 102 104 104 104 107 104 104 109 112 107 104 104 107 112 109 109 107 109 107 104 102 96 91 89 91 96 99 102 104 109 104 109 107 104 102 99 96 91 91 96 102 104 109 107 107 109 109 107 102 96 94 89 86 84 84 89 94 99 104 109 112 117 119 119 122 122 127 124 122 122 124 127 132 135 137 140 137 132 130 132 137 140 145 150 147 147 142 147 150 155 155 155 155 153 153 153 147 153 150 145 140 137 132 132 137 137 142 142 137 135
193 193 193 196 196 196 193 193 193 196 201 198 198 201 201 196 193 196 201 201 201 198 198 196 198 198 201 204 206 206 204 204 204 201 201 198 193 191 191 193 198 204 209 209 206 204 201 198 193 188 188 186 181 178 173 168 165 168 165 170 175 173 170 165 160 155 155 155 153 147 145 147 145 142 147 147 142 140 145 147 150 155 158 158 160 158 153 153 155 160 155 155 150 145 145 145 145 147 153 155 160 163 163 165 168 170 173 175 170 170 173 168 168 165 168 170 175 173 175 181 186 188 193 198 201 204 204 201 198 193 188 188 191 188 186 188 191 196 193 196 201 204 201 204 204 201 196 193 188 186 181 181 178 178 183 178 173 175 178 175 175 173 168 165 160 160 158 158 155 158 158 158 155 160 163 160 158 158 153 150 153 150 145 147 142 140 135 130 124 119 114 112 107 107 102 96 96 96 91 94 96 94 89 84 79 76 73 68 68 71 73 68 66 66 68 71 76 81 86 91 94 91 84 81 76 81 81 81 76 73 68 68 68 73 71 68 71 73 79 73 76 81 79 79 81 86 86 91 89 91 96 102 104 107 112 117 122 119 124 130 135 140 147 153 158 160 165 170 173 173 175 181 186 191 193 191 191 191 188 188 191 186 191 186 183 183 178 178 175 173 175 178 178 175 175 173 173 168 173 175 175 175 173 178 181 186 191 193 196 196 201 196 193 196 196 196 198 201 198 198 204 201 201 204 201 198 193 188 186 186 186 191 193 196 193 193 191 196 196 196 193 188 186 183 186 183 183 181 178 173 168 168 165 163 163 163 163 158 153 150 145 137 132 127 122 119 114 112 109 109 112 107 102 99 96 94 91 89 86 86 84 84 86 84 79 79 81 81 84 84 89 89 89 89 89 89 91 91 91 94 94 96 102 104 107 102 107 109 107 112 114 112 107 102 104 109 109 107 104 109 107 107 102 96 91 91 91 96 99 104 104 109 104 109 112 107 102 102 96 96 96 94 99 104 109 107 107 104 107 104 102 99 96 94 89 84 84 89 94 99 104 109 114 119 122 122 127 127 130 124 122 127 130 130 135 137 142 140 137 135 130 132 135 140 142 145 145 145 145 150 153 153 153 150 153 158 153 153 150 153 147 142 140 135 132 130 132 135 137 137 135 132
193 196 198 198 201 201 198 198 198 201 206 204 204 204 204 198 198 198 198 204 198 201 198 198 204 198 201 206 209 209 204 206 209 206 201 196 191 191 193 198 201 206 206 209 209 206 201 198 196 193 188 188 183 178 175 170 168 165 165 170 170 170 165 163 163 158 158 155 155 153 150 153 147 145 147 142 140 140 145 150 153 153 153 155 155 158 155 155 150 158 153 153 150 145 142 142 147 153 147 153 155 160 163 165 168 170 170 173 175 170 173 168 168 165 163 168 170 170 170 178 181 186 191 196 196 201 198 198 198 193 191 191 186 186 186 188 188 193 193 196 198 198 204 204 201 196 193 188 188 183 178 175 181 183 181 178 173 173 173 175 170 173 168 163 163 163 163 160 158 163 158 158 158 160 160 163 158 155 153 155 153 153 147 150 147 142 140 135 130 124 119 117 112 109 104 102 99 99 94 96 99 99 94 89 84 79 76 71 71 73 71 66 66 71 68 73 79 84 89 91 91 89 84 79 76 76 76 79 73 73 68 71 68 71 76 73 71 73 76 79 81 86 84 79 81 86 89 89 89 94 99 99 104 107 112 117 122 124 127 132 137 142 150 153 158 163 168 173 173 173 178 181 186 191 191 191 188 186 186 183 188 186 191 186 188 188 183 178 175 173 175 178 173 170 173 173 170 168 173 178 178 181 175 181 186 191 196 198 196 193 196 191 188 191 193 196 198 201 198 196 201 204 201 204 201 198 193 188 191 191 188 188 191 193 196 198 196 198 193 191 191 186 183 181 183 178 181 175 173 168 163 163 168 168 165 168 163 158 155 150 147 140 135 130 124 122 117 117 114 114 117 109 104 104 102 99 94 91 89 91 86 81 81 79 73 73 76 76 79 84 86 86 91 86 86 84 89 91 91 94 99 96 102 107 107 102 104 107 109 114 114 112 107 102 107 109 109 104 104 109 109 107 102 99 94 96 94 96 102 104 107 109 109 114 114 112 107 104 102 96 94 96 99 102 104 104 107 104 104 104 102 96 96 96 91 89 89 91 96 96 99 104 112 114 119 124 130 130 130 127 127 130 130 130 132 137 140 140 140 137 135 135 137 142 142 147 145 147 147 150 155 153 153 150 150 155 155 153 153 147 145 140 135 135 135 130 130 130 132 135 130 132
193 193 193 198 201 201 201 198 204 206 209 206 204 206 206 201 201 198 198 198 198 204 204 204 204 201 204 209 209 206 204 209 211 206 201 196 193 193 193 198 201 206 209 209 206 201 196 196 193 196 191 188 183 181 175 173 170 165 165 165 165 168 163 160 158 155 158 153 153 153 153 158 153 147 142 140 140 140 145 150 155 150 150 150 153 155 158 153 153 155 153 155 153 147 145 145 150 150 150 155 158 160 165 160 163 165 168 168 173 173 173 170 170 165 163 163 168 173 175 178 183 188 193 196 193 196 198 196 193 193 188 188 183 186 191 193 191 193 193 198 198 201 198 198 193 193 188 186 188 183 181 175 181 181 183 178 173 175 175 170 168 168 163 165 163 165 168 163 163 165 160 158 160 155 163 160 160 160 155 153 150 150 150 147 147 145 142 137 132 127 122 119 114 112 109 104 102 99 94 96 99 102 96 91 86 81 79 76 73 73 71 71 71 73 73 76 81 86 86 89 86 84 79 76 76 79 79 73 68 71 73 76 71 68 73 73 71 76 79 81 76 81 86 84 86 89 91 94 94 99 104 102 107 112 117 119 124 127 130 135 140 145 150 155 160 165 168 170 175 175 181 181 186 191 191 186 183 181 181 181 186 181 186 191 193 191 188 183 178 175 178 173 170 168 170 170 170 173 175 181 178 175 181 183 188 193 198 196 193 191 191 186 183 188 191 193 196 198 193 193 198 201 201 206 206 201 196 193 196 193 193 191 191 193 196 196 201 201 198 193 191 186 183 181 178 175 175 170 170 165 160 160 165 168 170 165 160 158 155 155 150 142 137 135 130 124 119 122 119 119 119 114 109 109 107 104 99 96 91 86 84 81 79 73 68 68 71 73 73 79 84 89 94 89 86 86 89 89 86 89 94 96 102 104 104 104 107 109 114 119 119 114 109 107 107 107 104 99 104 109 109 109 107 104 99 99 99 99 99 104 109 112 114 119 119 114 112 107 104 102 99 102 102 102 102 99 104 104 104 107 104 99 99 99 94 94 94 96 102 99 102 107 109 114 117 122 127 130 130 127 130 132 130 132 135 137 140 145 142 142 140 137 137 140 142 142 145 142 142 147 150 153 155 153 150 150 150 150 153 147 145 145 140 137 132 135 135 132 130 130 127 127
193 188 188 193 196 198 204 204 204 209 214 209 204 209 211 206 201 196 196 196 196 201 206 209 206 204 206 209 211 206 206 209 209 206 201 198 193 193 193 193 198 204 209 204 201 196 191 191 193 196 196 193 188 186 181 178 173 170 170 168 165 163 158 155 155 153 155 155 155 153 155 155 150 150 147 142 142 142 145 150 150 155 155 153 155 150 158 153 153 153 153 155 155 153 150 145 145 147 153 158 155 158 160 158 158 160 165 163 165 170 170 168 165 165 163 163 168 170 175 181 186 188 191 193 191 193 196 193 188 191 188 183 183 183 188 193 193 196 198 201 201 196 193 193 188 188 183 183 188 186 186 181 181 178 183 178 175 175 173 168 165 165 160 165 165 168 168 165 168 168 163 160 158 158 160 165 163 160 158 153 150 153 153 147 147 147 142 137 135 130 124 119 114 112 107 102 99 94 94 99 99 102 99 94 89 86 81 79 73 76 76 76 76 76 79 81 81 84 84 86 81 79 76 71 76 79 73 71 68 71 73 73 71 68 71 73 73 79 84 79 76 81 84 86 89 91 94 94 99 102 107 107 109 112 114 119 124 127 130 135 142 147 153 158 160 165 168 165 170 173 178 183 183 188 188 186 183 178 178 178 183 183 188 188 191 191 188 183 181 181 178 175 170 165 165 165 170 173 178 178 175 170 178 181 186 188 193 191 188 186 188 183 183 188 191 191 193 196 196 193 196 201 204 209 206 201 198 198 198 198 196 193 193 196 198 201 201 206 201 196 191 188 183 181 178 178 173 170 165 163 158 160 163 165 165 165 160 160 155 153 147 142 140 135 130 124 122 127 122 124 124 119 114 112 112 109 102 99 94 89 84 79 73 68 66 68 68 73 76 79 84 86 89 91 89 89 84 84 84 86 89 94 99 104 104 104 109 114 119 122 117 112 109 107 102 102 102 102 104 109 112 112 109 104 102 99 104 102 102 107 112 114 117 119 122 117 112 109 109 107 104 104 107 107 104 102 102 104 99 102 104 99 96 102 96 96 99 102 104 104 104 107 112 117 119 119 122 124 127 127 132 135 132 135 137 137 140 142 145 140 142 142 140 142 145 145 147 145 142 147 150 153 150 155 150 145 147 150 150 150 147 145 140 135 132 132 130 130 130 130 127 122
181 183 186 188 193 198 201 204 209 214 209 209 206 209 206 201 198 198 198 201 201 204 201 204 206 204 209 209 206 206 206 206 206 206 201 196 193 196 198 198 204 209 211 206 201 196 191 191 193 196 193 191 191 191 186 181 175 175 170 168 163 160 155 150 150 145 153 155 158 158 155 153 150 155 150 147 145 145 145 150 155 155 160 158 153 153 155 155 158 158 153 158 155 153 153 150 145 150 150 153 153 155 155 158 158 158 160 158 163 165 165 165 163 165 163 165 170 175 181 186 191 193 188 188 186 188 193 188 183 186 186 188 183 186 188 191 191 193 193 198 196 193 188 191 186 183 186 188 193 188 191 186 181 178 181 178 178 175 170 170 165 163 160 163 168 173 170 165 170 170 168 163 160 163 163 163 160 160 158 153 150 153 150 145 145 142 140 137 135 130 124 119 114 109 107 102 96 96 94 96 96 99 94 89 86 89 84 81 79 79 79 81 79 81 81 84 84 86 84 81 81 76 71 66 71 73 73 73 71 73 76 76 71 71 71 73 79 79 84 79 79 84 89 91 91 94 99 99 102 104 104 107 109 112 114 117 119 124 132 137 142 147 153 158 160 160 165 165 168 173 178 181 181 186 183 181 178 178 181 183 186 188 191 191 193 188 183 183 183 186 181 175 170 168 163 163 168 170 175 173 173 173 173 178 181 186 188 188 183 186 188 183 183 188 188 191 193 198 196 193 193 198 204 206 204 201 198 201 201 204 201 198 196 201 204 206 206 204 198 193 191 186 181 178 175 175 173 170 168 163 158 158 160 160 165 160 160 158 155 150 150 145 140 135 132 127 127 127 124 130 130 124 119 117 114 109 107 99 94 89 84 79 73 71 66 63 68 73 76 81 86 89 89 91 94 91 89 89 84 84 86 91 96 102 107 109 114 119 122 122 117 114 109 104 104 104 107 102 107 112 114 114 112 109 104 102 102 107 107 107 109 112 117 119 122 119 114 114 112 109 107 109 112 109 107 102 99 102 96 96 99 99 96 99 96 102 102 107 107 104 109 107 112 117 117 114 117 119 124 127 132 137 137 140 135 137 142 145 142 137 142 142 140 145 145 147 147 147 147 147 153 150 150 150 150 145 142 145 145 150 150 145 142 140 135 132 132 130 130 127 122 117
178 178 181 188 191 196 201 206 211 211 209 206 206 209 206 204 198 201 198 204 206 206 206 209 204 204 209 206 204 204 206 206 204 204 198 198 198 201 198 204 209 206 211 206 201 198 193 191 191 193 191 191 193 193 188 183 178 178 173 168 163 158 155 150 147 147 150 153 153 158 155 150 150 155 153 150 147 150 150 153 158 158 163 160 155 153 153 158 155 158 155 155 153 150 147 145 140 145 145 150 150 153 155 155 153 153 155 155 158 163 163 160 158 160 160 165 170 175 181 183 186 188 188 183 181 183 188 183 178 181 186 188 188 191 193 191 191 191 191 193 191 188 186 186 181 178 181 186 188 191 191 188 183 181 183 178 175 173 168 165 163 163 160 165 170 175 170 170 170 175 170 168 163 165 160 160 155 155 155 153 153 147 145 142 140 140 137 140 135 130 124 119 114 109 107 102 96 99 96 99 96 96 91 89 86 86 81 86 84 81 84 86 84 86 86 86 86 81 79 81 79 76 71 66 66 71 73 73 71 76 79 73 73 73 73 79 81 81 79 84 81 86 89 94 94 99 99 94 99 104 107 112 107 112 112 112 117 122 130 135 140 145 150 155 160 158 163 163 165 170 175 178 178 181 181 181 178 183 183 188 191 191 193 191 188 188 183 183 188 186 181 175 173 170 168 165 168 168 170 175 173 173 178 181 175 181 186 186 181 186 183 188 183 188 188 191 193 193 193 196 196 198 198 204 201 198 201 206 206 209 204 201 198 204 209 211 211 206 201 196 191 186 181 178 175 175 170 170 168 163 160 155 155 158 160 158 158 155 153 147 145 150 145 140 135 132 130 124 124 130 130 124 119 114 114 109 107 102 94 89 84 79 71 68 63 58 63 68 73 79 84 89 91 96 96 96 91 94 89 89 91 96 102 104 109 112 114 117 117 119 117 114 109 107 109 107 107 104 109 112 112 114 109 107 104 104 102 104 102 107 109 109 112 114 117 117 114 112 112 109 112 114 117 112 109 104 99 99 96 94 94 99 96 102 102 107 104 109 112 109 109 109 112 117 114 114 114 117 122 127 132 137 140 137 135 140 142 145 142 137 137 140 140 145 147 147 145 145 142 145 147 150 150 150 147 145 140 142 147 150 153 150 145 140 135 135 132 132 127 124 119 114
168 173 178 183 188 193 198 204 206 211 214 211 206 204 204 201 196 198 204 206 209 211 209 209 209 206 209 209 204 206 209 204 201 201 204 201 204 201 201 206 211 206 209 206 201 196 196 196 193 193 196 196 198 196 191 186 181 175 170 165 160 158 153 150 147 147 150 150 150 153 158 153 150 150 147 147 150 147 150 155 160 160 160 163 158 153 158 155 153 155 158 153 153 153 147 142 140 142 140 145 150 153 155 158 155 158 155 158 158 158 163 158 153 155 160 165 168 173 178 183 181 186 188 183 178 181 183 178 175 178 183 188 191 191 193 196 196 196 191 191 188 186 181 181 175 173 178 183 183 186 188 188 183 181 183 178 181 175 170 165 160 160 165 170 175 178 175 175 173 170 170 168 165 163 160 158 153 150 155 155 155 150 150 145 142 142 137 140 137 130 124 119 114 109 104 99 94 96 96 96 96 94 89 86 86 81 81 81 81 84 89 89 89 91 91 86 84 84 79 84 79 73 71 66 61 68 71 76 76 79 76 73 76 79 79 81 81 84 81 81 81 86 91 96 94 94 96 94 99 104 109 109 104 109 112 109 114 119 124 130 137 142 147 153 155 158 160 160 163 165 170 173 173 175 178 181 181 183 188 191 188 186 186 186 183 183 181 183 186 183 178 175 173 175 173 170 168 173 170 170 173 173 175 175 173 175 181 183 181 183 181 186 181 183 186 188 188 191 191 191 191 193 196 198 196 198 201 204 204 204 206 206 204 209 211 216 211 209 204 198 191 188 183 178 173 170 170 173 168 165 160 155 150 153 155 155 158 153 150 145 142 145 147 142 137 137 132 127 124 130 130 124 119 117 114 109 104 99 94 89 84 76 71 66 58 58 63 71 73 79 84 89 91 91 96 91 96 96 94 91 94 99 102 104 109 107 109 112 114 117 114 112 109 104 107 107 104 109 112 117 112 109 107 104 104 104 104 104 102 104 104 104 107 109 114 114 112 114 112 114 114 119 122 117 114 109 104 99 94 91 94 96 99 102 102 107 104 107 109 114 114 112 114 114 112 112 114 117 119 124 130 135 137 140 140 142 142 147 142 137 135 137 137 142 147 145 140 140 142 145 145 150 153 150 145 140 140 145 147 153 155 150 145 142 137 137 132 130 124 119 114 109
165 170 175 181 186 193 198 201 206 211 214 209 206 204 198 198 196 201 206 211 214 214 211 214 214 211 214 214 211 209 209 209 209 206 209 206 209 206 204 206 206 209 209 204 201 201 198 193 191 196 196 198 201 196 191 186 181 178 173 168 163 158 155 155 150 147 147 150 147 153 158 153 153 150 147 147 150 147 150 153 158 163 163 165 160 158 153 150 150 153 153 153 153 147 142 140 140 142 142 145 150 155 155 160 155 160 155 155 158 160 158 155 153 150 158 163 168 170 175 181 181 181 183 181 178 183 178 173 173 178 183 188 191 196 198 201 198 198 193 191 188 188 183 178 175 175 178 178 178 183 186 186 183 183 181 178 175 173 168 165 160 165 170 173 178 181 178 178 175 170 168 163 160 160 158 153 147 147 153 155 155 153 155 150 147 147 142 142 137 130 124 119 112 107 104 99 94 91 96 102 96 91 89 86 86 86 86 86 84 89 94 94 94 94 91 91 89 89 84 84 79 73 68 66 63 68 73 76 79 81 79 79 79 84 81 81 79 79 84 84 84 84 89 94 99 96 96 96 99 102 107 104 104 104 109 109 114 119 124 130 137 140 145 150 155 160 155 158 158 160 165 168 168 170 173 178 183 188 191 188 183 181 183 181 178 178 178 181 183 181 175 175 175 181 175 173 173 175 175 173 173 178 181 175 173 173 175 178 181 181 181 181 175 181 183 183 188 191 188 186 186 191 191 193 196 196 201 204 204 204 209 206 209 209 211 214 211 209 204 198 193 188 183 178 173 168 170 170 165 160 158 153 147 147 153 158 155 153 150 145 142 142 145 142 137 137 135 130 127 127 132 127 122 117 114 107 102 96 91 86 81 73 68 63 61 61 66 71 73 79 84 89 86 89 94 94 96 99 99 96 96 99 102 104 107 104 107 107 109 114 112 109 104 104 109 104 104 109 114 117 114 109 109 109 109 109 104 104 104 104 102 102 102 107 109 109 112 114 114 117 119 122 127 122 117 112 107 104 99 96 99 102 104 107 104 107 109 112 114 117 114 114 117 119 117 117 117 119 124 130 135 137 137 142 145 145 142 147 142 140 135 135 135 137 142 142 137 135 137 140 142 145 147 145 142 137 137 142 147 153 150 147 142 140 137 137 132 127 119 117 112 107
168 173 181 183 188 193 198 201 206 211 216 211 209 209 204 204 201 204 209 214 216 211 211 216 219 214 219 219 216 216 214 214 214 211 211 209 211 209 206 209 211 211 209 206 204 201 196 191 191 193 193 193 198 193 188 186 181 178 175 170 168 163 160 160 155 153 150 150 147 150 153 150 155 150 147 147 153 153 155 158 158 160 163 163 158 155 158 153 153 155 153 155 150 145 142 142 142 145 145 150 153 153 153 158 158 160 158 155 153 158 158 158 155 153 158 160 165 170 170 175 178 181 178 178 178 181 181 178 178 183 186 191 193 198 198 204 204 201 198 193 191 186 183 181 175 175 175 178 175 178 183 186 186 181 178 178 175 170 168 165 165 168 170 173 175 181 183 183 178 175 170 165 160 160 160 155 150 147 150 150 153 153 155 155 153 150 147 142 137 132 124 119 112 107 104 99 94 94 96 99 94 91 94 91 91 86 91 89 89 94 89 94 96 96 94 96 91 91 86 86 81 76 73 68 66 71 73 79 84 84 84 84 84 86 86 84 84 81 86 86 86 89 94 96 99 99 96 96 102 104 109 104 109 107 107 109 114 119 124 130 135 140 142 147 153 158 155 155 155 160 163 165 165 165 170 173 178 183 186 183 181 175 178 175 175 181 183 186 183 181 178 175 178 183 181 178 178 181 178 173 178 181 181 175 173 170 173 175 181 183 181 181 178 178 178 183 188 191 186 181 183 188 191 196 201 201 201 206 209 204 209 209 211 211 211 209 209 204 201 196 193 188 183 178 173 168 168 170 165 163 158 153 147 147 153 155 158 158 155 150 147 147 145 142 137 135 135 130 127 127 127 122 119 114 109 104 99 96 89 84 79 73 71 66 61 66 68 73 79 81 86 89 86 91 91 94 96 102 102 99 99 102 107 109 104 99 102 104 109 109 109 104 102 102 107 104 109 114 117 122 117 114 114 112 114 112 109 109 107 107 104 104 107 107 112 109 112 112 117 119 122 124 124 127 122 117 112 109 104 102 104 109 109 109 109 112 114 117 119 119 117 119 122 124 122 122 122 124 127 132 137 142 142 147 150 147 145 147 142 137 135 135 132 132 137 137 132 135 140 137 140 145 145 142 137 135 137 140 145 147 147 142 140 140 137 135 130 124 117 112 109 104
173 178 183 188 193 198 201 201 204 209 211 211 209 211 209 209 206 209 211 214 219 216 216 221 224 219 224 224 221 221 219 219 216 216 216 214 214 211 211 214 216 211 211 206 206 204 201 196 191 191 196 193 193 191 186 186 183 178 173 173 170 168 165 168 160 155 153 155 150 155 153 150 155 150 150 153 150 153 158 153 153 158 160 158 153 153 153 153 153 155 150 150 147 147 142 145 145 150 150 155 155 153 153 155 158 163 160 158 155 158 155 158 155 155 158 163 168 168 168 170 173 178 175 181 181 183 181 178 183 188 191 193 198 201 201 206 206 204 198 198 193 191 188 183 181 178 175 175 175 181 186 188 188 186 183 181 178 173 168 168 170 170 170 168 173 178 181 183 181 175 173 170 165 163 160 158 155 150 147 147 150 153 150 158 155 153 150 147 142 137 130 122 117 109 104 99 96 94 94 99 94 96 96 94 89 86 91 89 94 94 91 91 94 96 94 96 96 96 91 86 81 79 76 73 71 73 73 76 79 81 84 86 86 84 81 86 86 86 89 89 89 94 99 102 102 102 99 99 102 104 107 109 112 112 109 112 114 119 124 130 135 137 142 147 153 158 153 153 153 155 160 160 163 160 165 170 173 178 181 181 175 170 173 170 173 178 183 188 183 183 181 178 183 181 178 183 183 181 175 175 181 186 183 178 173 170 170 173 178 178 183 183 181 181 181 181 186 186 181 181 178 186 191 193 198 204 204 206 206 206 206 206 206 206 206 206 204 198 198 193 188 186 181 178 175 170 168 170 165 160 158 153 147 153 155 158 160 163 158 153 153 150 147 142 137 135 135 132 130 127 122 119 117 112 107 104 99 96 91 86 81 76 71 68 66 68 73 79 81 86 91 91 89 91 86 89 94 96 96 99 99 102 102 104 102 96 99 104 104 109 107 104 104 104 104 107 109 114 117 122 119 119 114 114 119 117 114 114 112 109 109 107 107 109 109 114 117 117 117 114 117 119 122 124 122 122 117 112 109 109 112 112 114 114 112 117 119 122 122 122 122 124 127 130 127 127 127 130 130 132 137 142 145 150 147 145 147 145 140 137 135 137 132 127 132 132 130 132 137 135 140 142 142 140 135 135 135 140 145 145 142 140 140 142 140 137 132 127 122 117 112 107
181 186 188 191 196 198 204 206 209 214 216 211 211 216 214 214 211 211 211 214 219 219 221 226 229 224 226 229 224 224 224 224 221 221 221 219 216 214 214 219 219 216 216 211 211 206 201 196 193 188 193 196 191 188 183 181 178 175 173 175 175 173 170 173 165 160 158 158 155 160 158 155 153 153 155 155 150 150 153 150 147 155 155 155 150 153 147 150 155 155 153 147 145 145 145 147 147 153 153 153 150 155 158 158 158 160 160 158 158 155 150 155 150 153 158 160 163 165 165 165 168 173 173 175 178 178 178 183 188 191 193 198 201 196 204 209 209 206 201 198 193 196 193 188 186 183 178 175 170 178 183 186 186 183 186 183 178 173 173 173 173 173 173 168 173 173 175 178 183 178 175 170 168 163 160 155 150 150 150 153 150 153 153 153 153 150 147 150 145 140 132 124 119 112 107 102 99 96 99 99 94 96 96 91 91 86 89 94 94 99 94 91 96 94 94 96 99 94 91 86 84 79 81 79 76 76 76 81 79 84 86 89 84 79 79 81 86 89 94 94 94 99 102 104 104 102 99 99 104 107 109 112 109 114 112 109 109 114 122 127 132 135 140 145 150 153 153 150 150 155 160 160 158 158 160 165 168 173 175 175 170 168 168 168 170 175 181 183 186 188 183 178 178 181 178 178 183 181 178 181 178 181 183 181 175 170 170 175 178 181 186 188 186 186 183 181 181 183 183 183 181 186 191 196 201 204 206 204 204 206 201 204 204 201 201 201 201 196 198 193 188 188 183 178 173 170 165 165 163 158 155 150 150 155 160 160 160 163 160 155 150 150 147 142 137 132 132 132 130 127 124 119 117 112 107 102 102 99 94 89 84 79 76 71 68 71 76 81 84 89 94 94 91 94 89 94 91 94 94 99 99 102 107 102 96 96 99 102 104 109 109 107 109 104 104 107 112 114 119 119 119 117 117 119 122 122 119 119 117 114 114 112 112 114 112 117 119 122 122 119 119 119 117 122 119 119 122 117 114 114 114 117 117 117 117 122 122 127 127 127 122 127 132 135 130 132 132 135 132 135 140 142 147 147 145 142 142 147 142 137 135 135 132 130 130 130 127 127 132 135 140 140 137 137 135 135 137 142 140 140 137 137 137 140 137 137 135 130 124 119 114 109
188 188 188 191 193 198 204 209 214 216 216 214 216 214 216 219 214 214 211 211 216 219 224 226 232 229 232 232 229 229 229 229 226 224 226 221 221 219 216 216 214 219 219 214 209 206 201 196 193 188 191 191 188 191 186 186 181 181 175 178 175 178 175 175 170 165 163 163 160 165 160 160 155 155 155 155 153 150 153 150 150 153 150 150 145 150 150 153 153 155 153 150 147 150 147 153 150 153 155 155 153 158 155 153 153 158 155 153 153 150 150 153 153 158 158 163 160 160 160 160 165 170 173 178 181 183 183 188 191 196 198 204 198 198 201 204 209 206 204 198 196 201 196 193 188 183 178 175 173 175 181 181 181 181 183 181 178 175 178 178 175 175 175 170 173 173 178 178 178 181 178 173 170 168 165 160 155 155 153 153 155 158 155 153 147 147 147 147 145 140 135 130 122 117 109 104 99 96 94 99 91 94 96 96 94 91 94 96 96 102 96 94 96 94 94 91 94 94 89 84 81 79 81 81 81 79 81 81 81 81 84 89 84 79 81 79 84 86 91 94 99 102 107 104 107 107 104 102 102 102 104 107 109 112 112 107 107 112 117 122 127 132 137 142 147 150 150 153 153 155 155 155 153 155 155 160 165 168 170 170 165 163 165 168 168 173 175 181 183 186 183 178 178 181 178 181 186 186 181 181 178 178 181 181 178 173 173 178 181 186 191 191 188 183 183 181 178 178 181 181 186 191 193 198 204 204 201 201 201 201 198 201 198 196 196 196 196 191 193 196 188 186 181 175 170 165 168 165 163 160 160 155 153 158 160 160 158 160 158 155 150 147 145 140 135 132 130 130 127 124 122 117 112 107 104 102 99 99 94 89 84 79 76 76 73 76 79 84 86 91 94 99 94 91 91 91 91 91 91 94 99 104 107 104 99 99 99 104 107 109 112 112 112 107 104 104 107 112 117 117 117 122 122 122 124 127 124 122 119 119 119 114 117 117 117 122 124 127 124 122 119 119 117 122 119 122 119 122 117 119 119 122 119 119 122 124 127 132 132 130 127 132 137 140 135 137 137 135 132 135 137 142 142 145 145 140 140 142 145 142 137 135 132 130 127 124 122 130 127 132 135 135 132 132 135 137 137 140 142 140 137 137 140 135 135 135 130 130 124 122 117 112
193 193 191 191 196 201 206 211 216 219 219 219 219 214 216 221 216 219 214 216 221 221 221 224 229 234 237 237 234 234 232 234 232 226 224 224 224 224 219 216 216 219 219 214 209 204 201 196 193 188 188 188 188 193 191 191 186 183 181 178 181 183 181 181 175 170 168 165 163 163 160 163 160 160 158 153 147 150 153 153 153 153 147 147 145 150 150 153 153 158 153 150 150 153 153 158 155 155 158 155 153 155 153 150 150 155 160 155 153 150 153 155 158 160 163 163 160 160 163 163 168 173 178 183 186 188 188 191 196 201 201 198 198 198 201 201 204 204 206 201 196 196 193 196 191 186 181 178 175 173 175 178 181 178 178 183 181 178 178 181 181 181 178 175 175 175 181 183 183 181 181 175 175 170 168 163 158 160 158 158 160 158 153 150 147 145 145 142 142 140 135 130 122 117 112 104 99 96 91 94 94 96 102 99 99 96 96 99 102 104 99 99 96 99 94 91 91 96 94 89 86 84 84 86 84 81 81 84 81 81 81 86 81 76 79 79 84 86 91 91 94 99 104 109 112 112 107 104 107 104 107 109 114 112 107 102 107 112 114 119 127 130 135 140 142 145 147 150 150 150 150 153 153 153 150 155 160 163 165 165 163 160 165 170 168 170 175 178 181 183 183 181 181 183 181 186 188 183 181 181 175 175 178 181 175 178 175 178 181 183 186 186 186 183 181 181 175 173 181 181 186 191 196 201 198 201 206 206 201 201 198 201 198 196 193 191 193 191 191 191 188 183 178 173 170 165 168 168 168 163 163 160 158 158 163 163 158 158 158 155 150 145 142 137 132 132 135 130 127 124 119 114 109 107 104 99 96 96 91 89 84 81 76 81 79 79 84 86 89 94 99 104 99 96 96 94 94 94 94 99 104 107 107 107 104 104 102 107 109 109 114 114 112 112 109 107 109 114 112 114 114 119 124 124 124 127 127 124 124 124 124 119 119 119 119 122 122 124 119 119 117 117 114 119 119 122 119 122 122 122 124 127 122 124 127 127 127 132 135 132 132 135 140 142 140 140 135 132 132 137 137 140 145 147 147 145 142 145 145 142 137 132 130 127 130 124 124 127 122 130 130 130 127 130 132 135 135 137 137 137 135 135 135 135 135 130 124 124 124 119 117 112
198 198 193 191 196 201 206 211 216 219 221 221 219 219 216 219 219 221 219 219 224 224 221 224 226 232 237 239 239 239 237 232 232 232 226 229 226 224 221 219 219 221 216 211 209 204 201 198 193 193 191 191 191 193 191 193 188 183 181 181 183 188 186 183 178 175 170 165 165 168 165 165 165 158 155 150 145 147 147 150 153 155 150 150 147 153 153 158 155 155 155 150 155 158 158 163 160 155 160 155 155 158 158 155 153 155 160 160 158 153 155 160 160 165 165 165 160 160 160 165 170 175 181 183 188 191 191 196 201 204 204 201 204 201 198 198 201 198 204 201 196 196 193 191 186 186 183 178 175 173 173 173 175 173 178 183 186 181 183 183 186 186 183 181 178 181 181 183 181 178 178 175 178 175 170 165 163 165 163 163 163 160 155 150 147 145 145 145 142 137 132 127 122 117 112 104 102 96 91 94 94 96 99 104 104 102 99 102 99 104 102 102 99 99 94 91 91 94 96 94 91 89 86 91 86 86 84 86 84 86 81 81 76 76 76 79 79 84 86 91 94 96 99 104 109 112 109 107 102 109 107 109 112 107 107 104 107 109 114 119 122 127 132 137 142 147 145 145 142 145 145 147 150 155 153 153 155 160 163 163 158 158 163 168 170 173 175 178 178 178 178 181 181 183 186 188 186 181 175 178 173 170 175 175 173 173 173 173 175 181 181 181 183 183 183 183 178 175 178 175 183 186 191 196 196 201 204 204 201 204 201 201 196 191 188 188 191 193 191 191 188 181 178 173 168 163 163 168 170 165 165 160 160 158 160 163 158 155 155 150 145 140 137 135 135 132 130 127 124 122 117 112 107 104 102 99 94 94 91 91 89 86 81 84 84 84 86 91 94 96 102 104 104 99 94 96 94 96 96 99 104 109 112 109 107 107 104 102 107 107 112 112 114 112 112 109 112 114 112 109 109 114 119 122 122 122 124 130 130 127 130 124 124 122 124 127 122 124 119 117 112 114 114 119 122 122 119 124 127 127 127 127 127 127 124 124 124 127 130 132 135 135 135 140 137 135 132 127 130 135 137 137 142 147 150 147 145 147 142 140 135 130 124 124 130 124 124 127 124 127 127 124 122 124 127 130 132 135 132 137 135 132 132 135 130 127 122 122 122 119 117 114
211 204 198 193 198 201 204 209 214 219 221 224 221 224 219 214 214 219 219 221 226 224 226 226 224 226 232 237 239 234 232 234 234 232 229 226 224 224 224 224 219 221 219 214 211 206 201 196 196 198 193 191 188 191 191 193 188 186 183 183 188 191 188 186 181 178 173 168 165 165 163 160 160 155 150 145 140 142 142 145 147 153 153 155 150 155 158 153 155 158 155 155 158 163 163 168 163 160 163 160 158 160 158 155 153 155 160 163 158 158 160 165 165 168 168 168 163 163 163 168 173 178 183 188 193 196 193 196 201 204 204 201 206 206 204 198 198 198 201 204 201 196 193 188 183 183 186 183 178 175 175 173 173 173 175 178 181 183 188 186 188 188 188 186 183 186 181 181 178 178 181 178 178 178 173 170 168 168 168 168 168 163 158 153 147 145 145 142 140 137 135 130 122 117 112 109 104 99 94 94 94 96 102 107 104 107 102 99 99 102 107 104 102 102 96 94 91 96 99 94 96 91 89 91 89 89 89 89 89 91 86 84 79 76 73 73 76 79 84 86 91 91 96 102 104 107 104 104 104 109 107 112 114 109 107 107 107 112 114 119 124 127 132 137 140 142 140 140 140 140 140 142 147 150 153 155 158 163 165 160 155 160 165 170 175 170 170 175 173 175 175 178 178 183 183 183 183 181 175 173 170 168 170 170 168 173 175 173 175 175 175 178 181 183 183 178 178 178 181 178 178 183 186 191 196 196 201 198 196 198 198 198 193 188 186 188 188 191 188 188 188 181 178 173 168 165 168 163 168 170 168 163 160 160 165 163 160 155 150 145 140 137 137 135 135 135 130 127 127 122 117 112 107 102 99 96 91 94 89 89 84 89 84 86 86 89 89 91 94 99 102 104 102 99 94 91 91 94 96 99 104 107 109 109 109 112 107 104 107 109 112 114 114 114 114 114 112 117 114 112 109 112 117 117 117 117 122 124 130 130 130 130 124 122 122 127 124 122 119 114 112 112 114 119 122 124 119 119 124 127 127 130 130 130 124 124 124 124 127 132 132 137 140 140 140 137 135 130 135 137 140 142 145 145 145 147 147 145 142 137 132 130 127 130 127 127 127 127 124 127 130 127 122 127 130 135 135 137 132 137 135 130 130 127 124 124 122 122 124 119 114 114
198 204 198 196 198 201 204 209 214 219 224 229 224 224 224 219 216 216 216 221 221 224 226 224 224 224 229 232 237 234 232 234 237 234 232 229 224 224 224 219 216 216 216 214 209 211 206 201 198 198 193 193 188 188 188 188 186 186 186 188 191 196 191 188 183 178 178 173 168 168 163 160 155 150 147 142 137 137 137 142 145 150 155 153 153 158 153 150 150 153 155 158 163 165 168 165 163 165 165 160 160 158 160 158 155 150 158 160 158 160 165 168 170 168 165 168 163 163 168 173 175 181 186 191 196 196 193 196 198 201 204 206 209 206 206 201 201 204 204 204 201 196 191 188 188 186 186 183 183 181 175 175 175 175 181 183 183 186 191 188 191 191 188 188 186 186 183 186 183 181 183 181 178 178 175 175 173 173 173 173 168 163 160 155 150 147 145 147 142 140 135 130 122 117 112 107 104 99 94 91 91 96 102 107 102 104 102 99 99 102 104 109 107 107 102 96 94 96 99 96 96 94 89 89 89 91 89 94 89 91 86 84 81 76 73 73 79 79 79 84 86 91 91 96 102 104 102 104 104 107 109 114 119 114 112 109 109 114 117 122 124 127 130 135 135 140 137 135 135 137 135 140 142 145 150 155 160 163 160 155 155 160 163 168 170 168 168 173 170 170 170 173 173 178 178 178 178 175 173 170 168 165 165 168 168 168 173 173 173 173 173 173 175 178 181 178 175 175 178 178 178 181 186 191 193 196 196 193 191 191 196 196 193 188 186 183 186 191 186 188 183 181 175 170 168 168 165 165 168 168 165 160 158 155 160 163 158 153 147 145 140 135 132 135 130 132 130 130 130 124 119 112 107 102 99 94 89 91 86 86 86 89 86 91 89 89 91 94 96 102 104 104 102 99 94 96 94 96 99 102 104 104 107 112 114 114 109 107 104 109 109 112 117 114 112 114 114 119 117 112 112 114 117 112 114 114 119 124 124 124 127 127 122 124 122 122 127 122 117 114 117 117 117 119 124 124 124 119 122 124 130 132 132 132 127 124 127 127 132 137 135 140 140 137 140 135 135 130 135 137 142 142 142 142 145 147 145 142 142 137 135 132 132 132 130 130 132 132 130 130 132 130 124 122 127 132 135 140 135 132 132 130 130 130 127 127 122 127 127 122 119 119
