171 175 180 175 173 173 175 173 169 165 160 156 152 147 143 147 152 156 158 162 162 162 160 160 160 160 165 160 158 154 156 160 165 165 167 165 160 158 158 154 150 150 150 152 150 145 143 141 137 143 139 143 145 150 152 152 154 156 154 152 147 143 139 137 135 135 137 135 135 137 135 137 141 137 132 130 130 128 126 128 126 126 130 135 137 141 141 139 139 137 137 137 141 141 139 139 141 141 141 141 141 143 143 141 137 137 139 137 139 139 139 137 137 135 132 130 130 132 137 141 139 143 145 141 139 139 135 132 137 139 143 143 147 152 154 158 158 162 160 162 162 158 158 154 152 154 156 154 152 154 152 147 145 147 145 145 150 150 154 154 152 152 150 150 147 152 150 145 141 145 143 145 147 150 150 152 150 152 147 145 147 145 143 143 143 139 143 139 135 130 126 124 120 124 122 126 128 132 137 139 143 145 150 150 145 147 152 156 158 162 167 169 167 169 169 169 167 171 173 173 173 175 175 177 182 180 180 177 175 180 182 182 182 186 186 184 182 184 188 186 188 186 184 180 177 182 184 188 190 188 188 186 182 177 173 171 167 167 171 171 171 169 169 171 173 171 171 171 167 167 162 162 162 160 156 160 158 160 158 158 162 162 165 162 167 165 167 162 160 158 156 158 158 158 158 154 150 147 152 147 145 141 141 143 145 147 152 154 152 150 147 147 147 152 150 154 154 158 160 165 167 167 169 165 162 160 160 162 162 162 162 160 165 167 171 173 175 175 173 169 171 173 173 173 169 171 169 169 171 173 175 175 175 180 182 182 182 186 184 184 184 186 184 186 186 184 186 184 188 186 182 182 180 180 180 184 188 190 195 190 188 188 184 184 182 180 184 182 177 173 169 167 165 167 167 167 171 171 169 167 165 169 173 175 175 177 175 177 180 177 173 169 167 162 160 162 165 162 158 158 154 154 154 156 158 158 158 160 162 162 162 167 171 175 180 182 184 186 184 182 180 177 173 173 171 173 173 175 180 184 188 192 197 201 203 201 199 195 192 188 186 184 180 182 184 186 184 184 188 190 192 188 190 186 182 180 175 173 173 177 175 171 169 169 171 175 177 177 175 175 177 175 173 171 167 165 162 162 165 167 171 173 171 167 165 169 165 160 156 154 152 152
175 177 180 180 175 175 171 171 167 162 158 154 152 147 145 147 152 156 158 162 158 160 165 165 160 162 165 162 160 156 160 165 169 169 169 167 165 162 158 154 152 150 152 154 152 147 143 141 139 143 141 141 143 147 150 152 156 154 152 147 147 143 141 137 137 139 139 137 137 139 137 139 141 137 135 130 132 132 128 130 130 128 130 135 139 141 143 141 137 137 139 139 141 139 141 139 141 145 141 145 143 145 145 143 141 139 135 135 135 139 141 137 137 135 137 135 132 132 135 137 139 141 143 139 141 141 137 132 135 137 141 145 150 154 156 160 162 160 165 165 162 158 160 156 154 154 154 152 150 152 147 152 150 150 150 150 152 154 158 158 156 156 152 152 152 152 147 145 141 141 139 141 145 150 152 154 154 152 152 150 150 147 145 147 143 139 141 137 132 130 126 124 122 122 126 126 130 135 137 141 145 143 145 145 145 147 150 156 158 162 167 171 171 173 169 169 167 171 175 173 173 173 175 180 180 180 182 180 175 175 180 184 184 184 184 180 180 180 184 184 184 188 184 182 182 184 188 188 186 188 186 186 184 180 175 171 169 169 171 169 167 171 169 171 175 175 171 169 165 165 162 165 162 158 158 160 158 160 160 160 162 165 162 162 162 162 167 167 162 162 158 158 156 156 158 154 152 150 150 145 143 139 141 145 147 152 156 158 156 152 150 145 143 147 147 152 156 160 165 167 169 171 173 169 167 165 162 165 165 165 167 165 167 171 175 175 173 173 175 173 175 173 173 173 171 175 173 173 175 177 180 180 177 177 182 182 182 186 188 188 188 188 184 182 184 188 188 188 190 188 186 182 180 182 180 182 186 190 192 190 192 190 188 186 184 180 180 177 175 175 173 169 169 171 171 171 173 173 173 171 169 173 173 175 175 177 177 180 180 175 171 169 165 162 162 165 169 167 162 158 154 150 150 152 154 154 156 158 158 162 167 171 175 180 182 184 184 186 184 180 177 177 175 175 173 177 175 180 184 188 192 197 201 205 207 205 203 199 197 192 190 186 182 184 184 186 184 184 186 190 188 186 188 186 184 180 177 173 175 175 177 173 169 171 171 175 177 175 173 173 175 173 173 171 169 167 167 165 169 169 171 171 169 167 165 165 167 165 160 158 154 154
177 177 177 177 175 173 171 169 165 160 156 152 147 145 145 145 150 154 156 160 160 162 162 165 162 167 167 162 162 160 165 167 171 171 169 167 162 160 156 156 152 150 152 152 150 147 143 143 143 147 145 145 147 150 150 152 152 154 152 150 150 147 143 139 139 141 143 139 139 143 139 141 143 141 137 135 135 132 132 132 130 130 135 137 141 141 141 141 139 141 143 143 141 139 143 143 141 141 145 150 145 150 147 145 143 143 139 137 139 141 139 139 139 137 141 137 135 135 137 141 137 137 141 137 137 139 135 135 132 137 139 143 147 152 156 158 158 160 162 165 160 162 158 156 156 152 150 147 145 150 147 150 152 154 152 152 154 156 158 156 158 160 156 156 156 154 152 147 145 143 141 143 143 147 152 156 158 156 156 154 152 147 145 145 141 141 139 139 135 130 128 124 126 124 126 128 132 137 139 141 143 143 145 145 147 145 150 154 158 162 167 169 171 171 169 165 165 169 171 171 173 177 180 184 182 180 184 182 180 180 182 186 186 184 180 175 177 177 180 182 184 186 182 180 184 184 184 184 184 184 186 188 186 182 177 175 171 169 169 171 169 171 173 171 175 171 169 173 169 165 165 167 165 162 162 165 160 158 162 162 158 162 160 158 158 158 162 167 165 162 158 160 156 154 158 156 152 150 145 143 141 139 141 143 147 152 156 158 156 152 150 147 145 145 150 154 158 162 165 169 171 175 175 171 171 167 162 162 162 167 171 167 171 175 180 180 175 177 177 177 177 175 175 173 173 175 175 175 177 180 175 177 180 180 182 184 184 184 184 188 192 190 188 184 188 190 190 186 186 184 182 182 184 186 184 186 188 188 192 190 195 195 192 190 186 182 180 177 177 180 177 173 171 171 173 175 177 177 177 175 173 175 177 177 175 180 177 180 175 173 171 171 169 167 165 167 167 165 160 156 152 150 145 147 150 150 154 158 162 167 169 173 177 180 184 186 186 182 180 177 177 180 177 177 177 180 177 182 186 190 195 199 203 205 210 207 207 203 201 197 192 188 186 186 188 186 184 180 184 188 190 186 190 190 186 182 177 175 180 177 180 175 173 173 173 171 173 173 169 171 171 173 175 175 171 169 169 165 169 171 173 169 169 167 167 162 162 167 162 162 158 158
180 173 175 175 173 171 171 165 162 158 154 150 147 147 145 147 152 156 158 162 165 165 162 162 165 169 169 167 167 165 167 171 175 171 167 165 160 158 154 156 154 154 154 154 150 147 145 147 147 150 150 150 150 152 154 152 150 152 154 154 154 150 145 141 139 139 141 141 143 141 139 141 141 141 139 139 139 137 135 130 128 132 135 139 141 145 143 143 141 143 147 145 141 141 143 141 137 139 143 147 147 150 147 147 147 145 143 141 143 143 141 139 141 139 141 139 139 139 141 141 139 137 141 137 135 135 135 130 130 135 137 141 145 150 152 154 158 162 162 160 158 158 158 158 158 156 152 147 145 147 152 154 152 156 156 154 158 156 158 154 154 156 156 154 156 152 147 150 147 145 145 145 147 152 154 156 154 154 156 154 150 147 143 143 141 139 139 137 132 128 126 124 126 124 126 130 135 139 141 141 143 143 147 147 143 145 150 154 158 160 165 167 169 171 169 167 165 169 171 175 175 177 180 184 182 182 184 186 182 184 182 182 182 180 175 175 177 177 177 180 184 186 184 180 180 180 182 180 182 182 184 186 186 184 182 177 173 173 173 173 169 167 171 173 173 171 167 171 169 165 165 162 162 165 165 167 162 158 160 160 156 158 156 154 154 156 160 162 162 162 160 160 156 154 154 156 152 147 147 145 143 139 141 143 147 152 154 158 156 154 152 147 147 150 154 158 160 165 169 173 175 180 177 175 171 167 165 160 158 162 167 171 175 177 177 177 177 180 180 182 182 180 177 175 173 177 177 180 180 177 177 182 182 184 184 184 182 180 182 186 190 190 188 184 186 188 190 190 188 186 186 186 188 188 188 188 192 188 190 195 197 197 192 190 186 184 180 182 182 182 177 175 173 175 177 177 182 180 180 180 177 180 175 177 177 177 177 180 175 173 173 173 169 165 165 167 165 162 158 154 150 147 145 145 145 147 152 154 160 162 167 171 175 180 182 182 186 182 180 182 180 184 182 182 180 180 182 184 188 190 195 199 203 207 207 212 207 205 201 199 195 190 186 188 186 186 184 182 184 184 188 190 192 190 186 184 182 177 182 180 177 180 177 175 173 169 169 169 169 169 169 173 175 175 171 169 169 167 167 169 169 169 167 171 167 165 167 162 160 162 162 158
175 173 177 173 171 169 167 167 162 158 154 150 150 147 147 150 154 156 160 162 167 169 167 165 167 167 171 171 169 167 171 175 171 169 169 165 160 158 154 156 156 156 158 156 152 150 147 150 150 152 152 154 154 154 154 154 150 152 156 156 156 152 147 145 143 139 141 143 147 145 141 139 139 137 141 141 137 132 132 130 128 132 137 141 143 147 145 147 143 143 145 145 143 141 143 141 137 137 141 143 145 150 145 145 150 147 145 141 143 143 141 137 141 143 143 141 141 141 141 137 137 139 143 139 139 137 137 132 130 130 135 139 143 147 150 154 158 162 160 162 162 162 158 156 156 156 152 147 145 150 152 156 154 158 160 158 158 158 158 154 150 154 154 152 152 147 145 147 145 143 145 147 150 150 152 154 150 154 154 152 147 143 143 141 137 137 135 132 130 126 124 126 126 126 130 135 137 141 145 145 147 145 147 145 143 145 147 152 156 160 162 165 165 167 165 165 165 169 173 175 175 177 177 180 184 182 184 184 182 186 184 182 180 177 175 177 180 177 177 180 180 182 182 177 175 175 177 175 177 180 180 182 182 184 182 177 173 173 173 171 167 167 171 173 169 167 162 169 169 167 167 165 162 167 169 169 167 162 160 156 152 154 152 150 150 152 156 160 158 158 160 160 156 156 152 152 147 145 150 145 141 139 143 145 150 154 156 156 154 154 154 152 150 154 158 160 165 169 171 175 177 180 180 180 173 171 167 162 160 165 169 173 171 175 175 177 180 184 182 184 186 184 180 175 173 173 177 180 175 175 180 182 182 182 184 186 182 184 186 186 190 192 188 184 186 186 186 188 192 188 188 188 190 192 192 192 195 192 195 199 201 197 192 188 186 182 182 180 177 177 175 175 173 177 180 180 180 182 184 182 177 175 175 180 177 173 175 175 173 173 177 173 171 169 165 165 165 165 160 156 154 150 145 145 145 150 154 158 158 162 167 169 173 177 180 180 184 180 180 180 184 186 184 186 184 184 182 184 186 190 195 197 201 203 205 207 205 203 203 199 195 192 190 186 182 184 180 186 184 186 188 192 190 188 186 186 186 182 177 177 173 177 182 177 175 171 167 165 165 165 169 173 175 171 171 167 167 167 167 169 165 169 167 167 165 165 165 160 160 160 160 156
169 173 175 173 169 165 165 165 162 158 156 152 150 152 152 154 158 160 165 167 169 171 171 169 165 165 169 171 169 171 171 171 169 167 167 162 160 160 156 154 154 158 158 154 152 154 152 152 152 152 154 156 158 158 158 156 152 156 160 160 156 154 152 147 145 143 145 145 145 147 145 141 139 139 139 139 135 132 130 130 130 135 139 143 147 152 147 145 141 139 143 145 145 143 141 137 135 139 143 145 147 147 143 143 147 143 143 141 141 143 139 137 141 143 145 143 139 139 141 137 135 139 139 141 143 141 137 135 130 132 135 137 141 145 150 154 158 160 160 160 160 158 154 152 152 154 154 150 145 147 152 156 156 160 165 162 158 160 156 152 150 150 150 150 147 143 143 143 143 139 143 143 145 147 147 152 152 156 156 152 150 145 143 139 135 132 130 128 128 126 124 128 128 128 130 135 137 141 141 145 143 147 143 141 139 141 145 150 154 158 160 165 162 165 165 165 165 169 173 175 180 177 177 177 182 184 186 184 184 186 186 182 177 177 177 177 177 180 182 180 175 177 177 173 171 171 173 173 175 180 177 177 177 180 180 177 173 173 171 167 165 165 167 169 167 165 165 167 167 171 169 167 167 169 169 165 162 160 156 154 150 152 152 150 147 147 152 156 156 156 156 156 152 152 150 152 147 145 145 143 143 143 147 147 150 154 158 158 156 156 156 156 152 156 160 165 169 171 173 175 175 177 180 182 177 173 169 167 165 169 171 173 171 175 175 175 180 182 182 184 186 186 182 177 175 173 177 180 175 175 177 180 182 186 186 188 186 182 182 184 186 190 186 186 188 190 188 190 195 192 190 192 195 197 197 197 195 197 197 201 197 195 190 186 182 180 180 177 175 175 175 173 175 180 180 182 182 184 184 182 180 180 177 177 175 173 177 180 175 173 177 175 173 171 169 165 167 165 160 156 154 150 147 145 145 147 150 154 154 158 162 167 171 175 180 182 182 180 182 184 184 186 188 188 188 186 186 188 186 188 190 195 199 201 201 205 205 207 203 199 195 192 188 184 182 182 182 182 182 186 188 188 188 186 182 186 188 184 180 175 173 175 180 180 175 171 169 165 162 162 167 169 173 169 167 162 162 167 169 167 167 169 169 165 162 167 162 160 160 162 162 158
173 177 173 169 167 165 162 162 160 160 158 154 152 154 156 156 160 165 169 171 171 173 173 169 167 167 171 173 171 173 171 169 167 162 162 160 158 156 156 158 156 156 156 158 156 158 156 154 154 154 158 160 162 162 162 160 156 160 165 160 156 158 154 152 150 147 143 145 150 152 150 145 141 143 139 139 135 137 135 132 135 139 143 147 150 152 150 145 141 139 139 141 141 139 137 137 135 139 141 143 145 147 145 145 150 145 147 143 141 145 141 141 143 147 147 147 143 139 143 139 135 137 139 141 141 143 141 137 135 135 135 139 143 147 150 154 156 158 158 162 160 156 152 152 154 154 150 150 150 150 152 154 158 158 162 160 158 158 154 152 150 147 145 147 145 143 143 141 141 139 141 143 147 147 145 150 154 156 156 152 147 143 139 135 130 128 126 124 124 126 124 126 128 130 132 135 132 137 139 141 139 143 139 143 141 143 145 147 152 154 158 160 160 160 158 160 162 167 169 173 175 173 177 182 182 184 186 186 186 184 188 184 182 182 182 177 180 182 182 177 173 173 173 171 167 167 169 171 171 175 175 175 177 177 177 180 177 173 171 167 169 167 165 167 162 167 169 169 171 171 169 169 171 169 167 165 160 158 154 152 150 152 156 154 150 150 150 154 156 156 154 152 150 152 150 147 147 145 150 145 145 147 150 150 152 156 158 160 160 160 160 158 156 160 165 167 171 175 175 175 175 175 180 182 180 175 173 171 169 171 173 175 173 177 175 177 180 184 186 184 186 188 184 182 177 177 180 180 177 175 173 177 182 186 188 186 184 184 182 184 184 188 188 190 192 192 192 192 197 197 192 195 197 199 201 199 199 199 199 201 197 192 188 186 182 177 177 175 175 177 177 173 177 182 184 184 186 186 184 184 184 182 180 177 175 175 175 175 173 173 173 177 177 175 171 169 169 167 162 160 156 152 150 150 150 152 152 156 154 158 162 167 171 175 180 184 186 184 184 184 186 188 192 192 192 188 188 192 188 190 195 197 199 203 205 205 205 205 203 201 197 195 192 188 186 184 186 186 186 190 192 190 188 186 184 186 188 184 180 177 173 173 177 177 175 173 169 165 165 165 169 173 175 171 167 165 165 167 167 167 169 167 165 165 160 165 160 160 162 162 160 158
173 173 171 167 165 162 162 165 165 162 158 156 154 156 156 160 165 169 173 175 175 177 173 171 171 167 171 173 175 173 171 171 167 162 160 158 158 160 156 160 156 158 158 160 162 162 160 158 160 158 160 165 165 167 162 165 160 162 160 160 158 158 156 152 147 145 143 145 150 154 150 150 145 145 143 143 139 141 139 137 139 143 147 150 154 154 152 150 145 143 139 139 139 139 135 139 139 139 141 145 150 147 147 147 147 147 152 147 143 145 143 139 141 145 147 143 143 141 141 143 139 137 141 139 139 141 139 139 139 137 139 143 147 150 150 154 154 158 158 160 156 154 152 154 154 154 152 150 154 152 150 150 154 156 158 156 156 154 152 150 147 145 143 143 141 143 141 141 137 137 139 143 143 143 143 147 150 154 150 147 143 139 135 130 128 124 122 122 120 124 122 122 124 128 128 130 130 132 135 137 135 139 137 139 137 141 143 147 150 154 156 160 156 156 154 156 158 162 167 169 171 171 175 175 177 180 182 184 184 184 184 186 184 184 184 182 182 180 180 175 171 169 169 173 169 171 171 171 171 175 173 173 175 175 173 175 173 175 171 169 165 165 162 162 158 165 167 171 169 169 165 171 171 171 169 167 162 160 156 154 150 150 152 156 154 154 154 156 156 156 154 152 147 147 150 150 150 150 152 150 150 147 152 152 156 158 158 162 165 162 165 162 158 162 167 171 173 177 177 180 175 175 177 180 177 177 175 173 173 175 175 175 173 175 180 180 182 180 184 188 188 190 186 184 180 177 182 180 177 175 173 175 180 182 186 188 184 184 182 186 184 186 188 192 197 192 197 197 201 199 197 195 199 195 199 197 197 197 197 197 195 192 188 186 186 182 180 180 175 173 175 177 180 184 186 186 186 186 184 188 186 186 184 180 180 177 175 173 169 175 173 177 180 177 173 169 167 165 160 156 154 150 150 152 154 154 154 158 156 158 162 167 169 173 177 182 184 188 184 186 188 190 188 192 190 190 190 195 190 188 192 195 199 203 203 201 205 205 205 203 201 199 195 192 190 188 188 190 188 192 192 192 190 188 186 188 188 188 184 182 177 173 175 177 175 171 169 167 167 165 169 169 173 171 169 167 167 165 165 162 167 171 167 162 160 162 162 165 167 165 160 158
180 175 171 169 165 167 167 167 165 160 160 156 154 154 158 162 167 171 175 177 177 173 175 175 173 169 173 173 177 177 173 171 167 162 160 158 160 158 158 160 158 162 160 165 167 167 165 162 165 162 162 165 165 165 165 162 160 162 162 162 162 162 160 156 152 147 145 147 150 152 152 152 150 150 147 145 141 145 143 141 141 143 145 150 154 158 154 152 147 143 141 141 137 135 132 135 135 139 143 145 150 150 152 150 150 150 152 150 147 143 139 139 141 145 145 145 147 143 141 139 139 139 141 137 137 137 135 135 137 137 141 143 143 147 150 150 152 156 158 160 156 154 156 156 158 154 152 154 156 154 152 150 150 152 154 152 152 150 147 147 143 143 143 141 137 141 143 139 135 135 139 141 139 139 141 145 145 147 145 143 139 135 132 128 124 124 122 117 117 120 117 122 124 124 126 128 128 130 135 135 132 135 132 137 135 137 141 145 150 152 156 158 154 152 150 154 156 158 162 165 167 169 169 171 171 175 177 180 180 182 184 180 177 182 182 182 180 177 180 177 173 169 167 171 171 173 175 173 171 171 169 171 171 175 173 173 169 171 173 171 167 169 165 160 160 162 167 169 167 167 167 167 167 169 169 165 162 160 158 154 150 152 156 158 154 154 150 154 152 152 154 154 150 147 150 150 152 152 156 152 150 150 154 154 156 160 160 162 165 162 167 165 160 160 165 167 171 175 173 177 177 180 180 175 173 173 177 177 175 177 177 177 177 177 182 180 182 182 184 186 186 188 188 186 182 180 184 180 175 173 173 175 180 182 182 184 182 184 182 182 182 186 190 195 195 195 199 199 203 201 201 197 195 192 195 197 199 199 199 197 195 197 192 188 188 186 182 180 175 175 177 182 180 182 184 184 184 186 186 188 186 186 184 182 182 182 177 173 171 173 169 175 177 177 173 169 165 162 158 154 152 150 150 154 158 156 156 160 158 160 165 167 167 171 175 177 182 186 188 190 190 188 184 188 190 190 195 190 188 188 188 192 195 199 203 203 207 207 210 205 203 203 199 197 195 190 192 192 190 190 188 188 188 190 188 188 184 184 180 184 180 177 177 175 173 169 167 165 165 169 173 171 173 175 171 171 169 165 167 165 165 167 169 165 160 160 162 167 171 169 165 162
171 171 169 167 167 169 169 169 165 162 162 158 156 156 158 160 165 167 171 175 175 173 173 171 171 171 171 175 173 175 171 169 165 160 156 158 160 158 160 165 160 165 167 169 171 171 167 167 169 167 165 165 162 160 162 165 165 165 165 167 165 167 162 158 154 152 150 152 152 154 154 154 154 152 152 150 145 147 147 145 145 145 145 150 154 156 156 152 147 143 143 141 141 137 132 130 132 135 139 143 147 150 154 154 150 154 154 152 147 143 141 137 141 143 145 147 145 145 145 143 139 141 139 139 135 135 135 135 130 132 137 139 141 143 147 147 150 154 158 160 158 156 156 156 158 158 154 154 154 152 152 152 150 147 150 150 147 145 143 143 141 145 141 139 139 139 139 137 135 132 137 137 135 135 137 141 139 143 141 139 135 132 128 124 124 128 124 122 117 120 117 117 122 126 124 124 124 126 130 130 128 130 128 132 132 137 141 145 150 152 154 154 152 150 145 150 152 156 158 160 162 165 165 167 167 171 173 175 175 175 180 175 173 177 175 177 175 177 175 173 171 169 167 167 171 175 175 171 167 169 169 173 169 171 173 169 171 175 173 169 171 171 167 165 165 165 167 169 167 167 167 169 167 171 171 167 162 160 158 156 154 154 158 158 154 150 150 150 147 147 150 154 152 150 150 150 150 150 152 154 152 152 154 158 158 162 160 162 165 165 167 167 165 160 162 165 169 171 173 177 173 175 180 177 177 175 175 180 180 182 182 182 180 180 184 180 180 184 182 182 184 188 190 188 184 182 182 180 177 173 175 177 180 184 184 184 182 184 182 184 184 188 190 195 195 197 201 201 201 199 197 195 192 192 192 195 197 197 199 195 195 197 192 188 184 184 184 180 177 180 182 184 182 182 180 182 184 184 186 188 188 190 188 184 182 184 180 175 173 173 171 171 175 175 171 167 162 160 158 154 152 154 152 156 154 158 156 160 158 160 165 167 167 169 171 175 180 184 188 192 188 186 182 186 186 190 190 192 190 192 192 192 192 197 201 205 210 212 207 205 203 205 201 199 197 195 195 195 192 190 190 192 192 190 190 190 188 184 182 184 180 177 177 173 171 169 169 167 167 169 173 173 171 173 173 175 173 169 169 169 165 165 165 165 162 165 165 169 171 171 169 167
171 167 165 165 165 165 167 169 165 167 165 162 160 158 158 162 162 167 169 173 175 173 169 169 167 171 167 171 171 171 167 165 162 158 156 160 165 162 162 162 167 171 171 171 175 175 171 171 171 171 167 162 162 165 165 169 165 165 167 169 169 167 165 160 156 156 154 156 156 156 156 156 156 152 150 147 145 145 150 150 145 150 150 150 152 152 154 150 147 147 145 143 141 139 135 135 135 137 141 143 147 152 156 154 150 152 150 147 143 141 137 137 141 145 147 150 150 150 150 147 143 143 139 143 139 135 132 130 128 128 132 137 137 139 143 145 150 154 158 160 156 154 158 158 158 158 156 156 154 154 152 154 152 147 145 145 143 143 139 139 137 141 139 139 141 137 137 132 130 130 132 132 132 130 135 137 135 139 137 135 132 130 128 126 128 130 126 124 120 117 115 117 120 124 126 122 122 124 128 126 126 130 130 132 137 139 141 143 145 147 150 150 147 145 143 145 150 154 156 156 158 160 160 162 162 165 169 171 171 171 173 171 169 173 171 171 171 173 171 169 169 167 169 165 169 173 171 167 165 167 167 171 169 169 173 169 169 173 171 169 173 171 171 167 165 169 167 169 167 171 169 171 171 169 167 165 165 165 160 158 154 156 158 156 154 152 150 147 143 145 147 150 150 150 152 147 147 147 150 152 154 156 158 160 160 160 158 162 165 167 169 171 167 162 167 167 167 169 173 175 175 177 180 182 182 180 177 182 184 186 184 186 184 182 184 182 182 184 180 177 182 186 190 188 186 182 180 175 175 175 175 177 182 186 188 186 182 184 184 188 184 186 188 192 195 195 199 201 199 197 195 192 192 195 192 197 199 195 197 197 197 195 190 188 184 182 180 180 180 184 186 184 182 182 182 186 186 188 186 188 192 190 186 184 184 182 180 180 177 177 173 173 173 171 167 162 158 156 156 156 152 150 154 152 152 156 156 158 160 162 165 169 169 169 171 175 180 180 184 188 184 184 180 182 184 188 188 192 195 197 192 192 197 201 205 210 212 212 207 203 201 201 197 195 197 197 192 195 190 190 192 192 197 195 192 195 190 186 184 182 180 177 177 173 171 169 171 169 171 173 173 173 171 171 175 177 177 173 171 171 167 165 167 162 162 167 167 169 171 169 165 165
165 160 162 160 160 160 162 165 165 165 169 167 165 160 160 160 160 165 167 169 173 173 169 169 167 171 169 169 167 167 165 160 158 158 160 162 160 165 165 167 171 175 175 175 177 177 175 175 175 175 171 167 165 167 167 167 167 169 169 173 171 167 162 158 156 156 156 160 158 156 158 158 156 152 150 147 145 145 145 145 143 147 150 150 152 152 152 147 147 147 150 147 145 141 137 137 135 139 141 143 147 152 154 156 154 152 152 147 145 141 137 139 141 143 145 147 150 152 150 147 145 147 143 143 139 135 132 128 124 126 128 132 132 137 141 145 147 150 154 156 154 152 154 156 156 154 154 154 152 152 154 152 147 145 143 143 139 139 137 135 135 137 137 141 141 137 132 130 126 126 128 130 128 126 130 135 130 132 132 132 130 128 124 124 124 126 122 120 120 117 113 117 115 120 122 120 117 120 124 124 128 130 132 135 139 143 145 143 141 145 145 145 143 141 141 143 145 150 152 152 154 156 156 158 158 162 165 169 167 167 169 169 167 167 165 167 169 169 169 165 165 165 167 165 169 171 169 165 165 169 169 169 171 171 171 169 167 171 173 169 169 167 167 167 162 165 167 167 167 171 171 171 167 169 165 167 167 167 162 158 156 156 158 156 154 152 147 143 139 141 143 147 147 147 147 143 143 145 147 150 154 158 160 158 156 160 158 160 162 165 167 167 165 162 165 162 165 167 171 175 177 180 180 184 184 182 182 184 184 186 186 186 186 184 184 180 177 180 177 177 182 184 186 186 182 182 184 180 175 177 177 177 182 184 184 184 184 184 186 188 186 188 192 197 197 199 201 201 199 195 195 197 192 192 192 197 195 195 192 199 199 192 190 186 182 177 175 180 184 186 184 182 182 184 186 190 188 188 186 188 190 188 184 182 182 180 182 184 182 180 175 175 171 167 162 158 156 152 152 154 152 150 152 154 152 156 156 160 162 167 167 171 169 165 169 173 175 177 182 184 182 182 180 184 188 190 190 188 190 192 188 192 197 201 205 210 210 207 205 201 197 201 199 195 195 192 192 192 188 188 192 197 199 195 192 195 192 188 184 184 180 180 180 177 175 171 173 173 175 177 173 175 175 171 171 173 177 177 173 171 171 169 165 162 162 165 165 165 169 169 169 165
154 156 158 158 156 158 160 162 165 169 167 165 167 165 162 165 165 167 169 173 171 175 173 171 171 173 169 167 167 162 160 156 156 158 162 165 162 162 167 171 175 177 180 180 182 182 180 177 177 177 173 171 169 169 171 169 169 171 171 171 171 169 165 160 158 158 160 162 162 160 160 158 154 150 154 150 147 147 145 143 141 145 147 152 156 152 150 147 152 152 154 150 150 145 141 139 137 141 141 143 147 150 152 152 152 150 150 152 147 143 139 137 137 139 143 147 152 152 147 145 145 145 145 143 137 135 130 126 124 126 130 135 135 139 143 143 145 150 154 156 154 152 154 152 152 152 150 150 147 147 152 152 150 147 143 141 139 135 132 130 130 132 132 137 137 132 128 126 122 124 128 126 126 126 128 130 126 126 128 128 126 124 120 120 120 122 117 115 115 115 113 113 113 115 120 117 113 120 122 126 128 130 135 139 141 143 143 141 139 141 143 141 139 139 141 139 143 145 150 150 150 152 152 156 156 158 160 165 162 165 165 165 162 162 162 165 165 165 165 160 160 162 167 165 165 167 169 167 165 165 169 171 173 173 171 169 167 169 169 165 165 165 169 165 162 162 167 171 169 173 173 169 165 165 160 165 165 162 160 156 156 156 158 154 150 147 145 141 137 137 141 143 143 143 143 139 141 141 145 150 154 156 160 158 154 158 154 158 160 165 165 162 162 165 167 165 167 171 173 173 173 177 182 182 186 184 184 182 180 184 186 184 184 184 180 177 175 175 175 180 180 184 186 182 180 184 186 182 180 180 180 175 177 182 186 184 186 186 184 186 186 188 192 195 199 201 201 197 195 190 195 197 195 195 197 199 197 197 195 199 195 190 186 182 180 177 177 180 184 184 184 184 182 182 186 188 188 188 186 186 186 186 186 184 182 180 184 186 182 177 175 171 167 165 160 156 152 147 150 152 152 154 152 154 152 156 158 162 167 165 165 167 167 167 167 171 175 177 182 180 177 177 180 184 186 186 188 184 188 190 190 192 197 201 203 205 205 203 201 199 195 197 197 192 190 192 195 192 192 192 195 195 197 197 195 192 188 184 182 180 175 180 182 177 177 173 177 177 177 177 175 177 177 175 173 175 175 175 175 173 173 169 165 160 160 162 160 162 165 169 165 162
147 152 154 158 154 154 158 162 167 167 165 165 162 162 167 169 165 165 169 173 171 173 175 173 175 175 171 169 165 160 156 152 152 156 160 162 162 167 171 175 177 182 182 184 184 184 182 182 180 180 177 175 173 173 175 173 173 173 173 175 173 169 165 162 162 162 165 167 167 162 160 156 152 150 152 150 147 145 145 143 141 143 147 147 152 147 152 150 152 156 154 152 147 147 143 141 139 143 141 143 145 147 150 152 150 154 152 154 150 145 141 137 132 137 141 145 147 147 147 143 143 143 143 139 137 132 130 126 124 126 128 130 132 137 141 145 147 150 154 154 150 150 150 147 147 147 145 147 145 143 147 152 150 145 143 141 137 132 128 128 128 130 130 132 132 128 124 122 117 122 124 128 128 128 124 126 124 124 124 124 124 120 117 115 117 117 115 113 113 111 111 111 109 113 115 115 115 115 120 124 124 128 132 137 139 141 143 139 135 137 139 139 137 135 141 139 139 143 145 147 145 147 147 152 152 154 158 160 160 160 160 160 158 160 158 160 160 160 160 156 156 160 165 165 167 171 169 167 169 169 169 169 173 177 175 171 167 167 165 160 165 167 169 165 162 165 167 171 171 175 171 167 165 162 162 165 167 165 160 156 156 156 156 152 150 147 145 141 137 137 141 141 139 139 139 137 137 141 145 150 152 156 156 154 154 158 156 156 160 165 167 167 162 165 165 165 167 171 171 169 173 175 180 180 182 186 182 182 182 184 182 180 180 182 180 177 175 175 180 184 184 186 186 182 180 182 186 182 180 184 180 175 177 177 182 186 184 184 182 184 184 188 192 195 199 201 197 192 192 192 195 197 197 192 192 195 197 199 195 197 192 190 186 182 180 180 180 184 186 186 184 184 186 186 186 186 186 188 186 188 184 184 186 184 186 184 186 186 182 177 175 173 169 162 160 156 152 152 152 154 152 156 156 154 152 154 158 160 165 167 162 162 165 169 171 171 175 180 182 177 177 177 180 182 182 184 186 186 186 188 192 195 197 201 201 203 203 205 201 199 195 197 195 190 190 195 197 197 197 197 197 195 197 197 192 190 186 182 180 177 177 180 180 182 182 177 182 182 182 180 180 182 182 177 175 180 177 175 175 175 175 171 167 162 160 162 160 160 160 165 162 158
145 150 150 154 156 158 156 160 165 165 165 167 167 167 167 169 165 165 165 169 173 175 177 175 177 175 173 171 167 162 158 156 156 158 158 162 167 169 173 177 182 186 186 186 182 180 180 182 180 182 182 177 177 177 180 177 177 177 177 175 173 171 167 165 167 165 165 169 167 165 160 156 152 152 154 154 152 150 150 147 143 139 143 145 150 150 154 154 150 154 152 152 147 147 143 143 141 143 143 145 141 147 150 150 150 154 156 152 150 145 141 137 132 135 139 141 143 145 150 145 143 139 141 139 135 132 132 130 126 128 128 132 132 137 141 143 147 147 150 150 147 147 145 145 143 143 141 143 145 143 143 147 152 147 145 141 137 132 128 130 130 132 132 132 130 126 122 120 120 122 126 130 128 124 122 122 120 120 122 120 117 117 113 115 117 115 111 111 109 107 107 107 109 113 115 113 115 115 120 122 124 126 130 135 137 137 141 137 135 135 139 137 137 137 137 135 137 139 143 143 141 143 143 147 150 154 154 158 156 156 156 156 154 156 154 158 158 158 158 156 156 160 160 162 167 169 171 169 173 171 171 171 175 180 175 173 169 165 162 160 162 167 165 165 165 169 169 169 169 173 173 169 165 162 165 167 167 165 165 160 160 158 154 152 147 145 143 141 139 139 143 143 139 137 137 132 139 141 145 150 154 156 154 156 154 154 156 158 162 167 169 171 167 169 167 165 169 173 171 171 173 177 180 182 184 184 180 182 184 182 182 182 184 186 182 182 177 180 184 186 186 190 188 186 184 184 184 186 182 182 180 177 180 180 177 182 180 180 180 182 186 188 192 195 197 197 197 195 197 197 197 199 201 197 192 192 197 195 192 195 192 190 186 184 182 182 182 182 186 188 186 186 190 186 190 186 184 186 188 186 182 184 186 186 186 186 188 184 182 177 177 177 171 167 162 158 154 152 154 154 154 156 158 158 156 158 162 165 169 171 167 165 169 173 175 175 177 182 180 177 177 180 184 186 186 186 190 188 188 192 197 197 199 201 201 203 207 205 203 201 197 195 195 195 195 197 201 199 201 201 201 199 197 197 192 190 188 186 182 180 180 184 184 186 186 182 184 186 186 184 182 180 180 177 175 177 180 180 175 177 175 173 169 165 162 158 162 162 162 167 165 162
145 147 150 152 154 154 154 156 160 162 165 167 167 171 169 167 167 169 167 171 175 180 177 175 175 175 171 167 162 162 162 160 160 160 160 165 169 173 177 182 186 190 190 188 186 182 177 180 180 182 182 180 182 180 182 180 182 180 180 177 175 173 171 169 169 169 169 171 167 165 160 158 156 156 156 154 152 152 150 145 143 141 141 145 147 152 152 150 150 152 150 147 147 145 143 143 143 145 141 145 143 145 150 154 154 156 154 150 147 143 139 137 132 135 139 143 139 145 147 145 141 137 137 139 135 132 130 126 130 130 132 130 132 132 137 141 145 145 145 147 143 145 145 145 145 143 141 141 143 145 143 147 147 145 141 139 135 132 132 135 135 137 135 130 126 126 122 124 124 124 126 128 128 126 124 120 117 115 117 115 115 113 113 115 115 117 115 113 111 111 109 109 109 111 111 113 117 120 117 120 120 124 128 130 135 137 139 141 137 137 137 135 135 137 139 137 139 139 139 139 135 139 141 145 150 154 156 154 152 152 152 154 150 152 152 156 156 154 154 156 160 162 160 160 165 169 169 173 175 173 173 175 177 177 175 175 171 167 165 165 165 165 167 169 169 171 169 169 169 169 171 169 167 165 167 169 171 167 165 162 160 158 154 150 147 147 145 143 143 141 143 141 137 135 135 135 137 141 145 150 152 156 154 154 158 156 158 162 167 171 173 173 169 171 169 167 169 171 175 173 177 182 184 182 184 180 180 182 184 184 184 184 186 188 186 184 182 184 186 190 190 192 188 186 186 188 186 188 184 186 182 177 180 180 180 182 182 180 182 186 188 192 192 195 195 192 195 197 201 201 201 201 201 197 195 192 195 192 192 195 190 188 188 186 186 186 182 184 182 186 184 184 186 186 188 186 184 188 186 182 177 182 184 186 184 188 188 184 182 177 180 180 175 169 165 162 158 154 152 154 156 158 156 160 160 162 167 165 169 171 171 169 173 177 180 180 180 182 182 180 182 184 186 188 186 190 190 190 192 190 195 197 195 201 203 207 205 205 203 201 199 197 199 199 199 199 199 203 205 203 203 199 197 199 197 192 188 188 184 182 184 186 186 188 190 186 188 188 188 186 184 182 180 175 173 173 177 180 175 175 175 171 169 165 160 160 160 162 165 165 165 165
156 147 147 152 152 152 156 156 156 158 160 165 167 169 171 169 169 173 171 171 175 175 175 173 171 171 171 169 165 162 162 165 162 162 165 169 173 175 180 182 186 188 190 186 182 180 177 177 180 184 184 182 186 182 186 182 184 182 182 180 180 177 175 171 173 173 171 167 165 165 162 160 160 160 158 156 154 150 147 145 145 143 141 145 147 152 152 150 152 147 152 150 145 143 139 141 145 145 141 143 143 145 150 154 156 154 152 150 143 141 137 135 135 137 139 141 141 145 150 145 141 139 135 135 132 128 128 124 128 132 132 128 128 130 135 139 141 141 143 143 139 141 145 141 143 145 141 143 145 147 147 150 147 147 145 143 139 135 137 139 137 137 132 128 126 124 124 126 126 126 130 128 124 122 122 124 120 115 117 113 111 111 115 120 120 120 117 115 113 115 113 111 113 113 113 115 117 120 117 117 117 122 124 128 132 135 135 137 135 137 135 132 137 137 137 141 141 139 141 137 137 141 145 150 152 156 154 152 147 147 150 152 147 150 147 152 156 156 156 158 162 165 160 160 162 167 171 173 173 171 175 180 180 177 175 173 171 169 165 167 165 167 169 173 171 171 171 169 171 169 173 169 167 167 167 171 173 171 169 167 162 160 156 154 150 147 150 147 145 143 145 141 139 137 137 139 139 141 141 145 150 152 156 156 156 156 160 165 167 169 171 173 173 175 171 171 171 173 175 177 182 186 188 186 182 182 184 182 184 186 188 188 188 192 188 188 186 186 190 192 195 192 190 190 190 190 188 190 186 188 186 182 184 182 182 184 184 184 186 186 188 190 195 197 195 195 197 201 203 205 201 199 197 195 197 195 192 192 197 192 192 192 190 190 188 190 186 184 182 182 184 182 182 184 188 188 188 186 184 180 180 180 182 182 180 186 188 186 184 182 182 182 177 173 167 165 160 156 152 154 152 158 156 158 160 165 167 167 171 173 173 173 175 180 182 184 180 184 182 184 186 188 186 190 190 192 192 195 192 190 195 197 197 199 201 203 203 203 201 201 199 199 203 203 203 201 201 201 201 205 203 201 201 201 197 195 190 186 186 186 188 188 190 190 192 190 192 192 190 188 188 184 180 177 173 173 177 175 171 171 173 171 169 165 162 165 165 167 167 167 162 160
145 145 150 150 150 154 152 152 152 156 158 160 165 169 171 171 173 175 175 173 173 177 177 173 171 175 171 169 165 165 165 167 167 165 169 173 177 180 184 186 186 186 188 186 182 182 180 177 177 180 180 180 182 184 182 186 186 186 184 184 182 180 175 173 173 169 167 165 160 160 165 165 162 165 162 158 154 150 147 143 143 141 141 145 147 150 150 150 150 150 152 147 143 139 139 141 143 145 143 147 145 147 150 154 156 154 150 147 143 139 137 139 137 139 139 143 141 145 145 141 139 137 135 132 130 126 124 124 126 130 128 128 130 128 130 135 139 139 139 139 137 137 141 139 141 143 139 141 145 147 150 145 143 145 150 145 141 139 139 139 137 135 132 130 126 126 126 130 126 130 135 130 126 124 122 122 120 115 113 111 111 111 115 120 122 122 122 120 117 117 115 113 117 113 115 120 122 122 117 120 120 122 124 128 128 130 130 135 132 132 130 132 135 139 137 141 139 137 137 137 137 139 143 147 150 154 152 147 143 145 145 147 141 147 147 152 154 156 156 156 160 162 158 160 162 165 169 169 169 167 171 175 175 180 175 173 173 169 167 167 167 169 173 173 171 169 169 171 169 173 169 169 169 169 171 175 171 175 173 169 165 160 156 154 150 147 150 147 145 143 143 141 139 139 139 141 141 145 141 143 147 152 156 156 160 156 160 165 169 171 173 175 175 177 173 175 171 173 177 182 186 190 190 188 184 182 182 184 184 188 190 192 190 192 190 190 190 188 186 188 192 188 188 188 190 190 190 186 184 184 182 182 186 184 182 184 182 186 190 188 188 188 190 195 195 199 201 205 201 201 203 201 197 195 197 195 192 195 195 195 195 195 195 192 190 190 186 184 182 184 184 184 186 186 188 190 186 182 180 182 180 180 184 182 182 182 184 188 188 186 182 184 180 175 171 165 162 158 154 156 154 158 156 156 160 162 162 167 171 173 173 175 180 182 186 184 184 186 184 186 188 190 190 190 195 197 195 192 192 190 195 197 199 201 201 201 203 205 201 201 201 203 207 203 205 203 199 197 199 201 203 199 199 203 201 197 192 188 186 188 190 190 190 195 192 190 195 192 192 190 188 186 182 177 175 173 175 175 171 173 169 169 171 167 167 169 165 167 169 169 165 162
145 150 152 150 147 150 150 147 150 152 156 160 165 167 171 173 175 180 177 175 175 177 180 175 173 175 173 171 169 165 167 169 171 167 171 175 177 180 182 186 186 184 184 182 177 177 177 175 175 177 180 182 184 184 184 184 186 186 184 188 184 180 177 173 169 167 162 160 160 162 167 169 165 167 162 160 156 152 147 145 145 141 145 145 147 152 150 152 150 154 150 147 143 139 139 141 143 145 147 147 147 150 152 156 154 154 152 150 145 141 139 141 141 141 141 141 141 143 143 143 143 141 137 135 132 128 126 126 128 130 130 130 132 132 135 139 139 141 141 137 135 135 139 139 141 141 139 143 145 150 145 143 141 143 145 145 143 141 141 139 137 135 130 126 126 126 128 128 126 126 130 130 130 126 126 122 117 115 111 111 111 109 113 117 117 120 124 124 122 122 120 117 117 115 117 122 120 120 117 120 122 122 124 124 126 130 128 130 130 130 128 130 132 135 137 139 137 139 137 139 139 139 141 145 147 150 147 143 141 141 143 145 143 147 150 154 158 160 156 160 160 158 158 160 160 165 167 167 167 162 169 171 173 177 173 173 171 167 167 169 167 171 175 175 173 171 171 169 165 171 173 173 173 173 173 173 171 175 177 173 169 165 160 156 152 147 152 147 147 145 145 145 141 139 141 145 145 145 145 147 150 150 154 158 162 160 165 162 167 169 171 173 175 173 171 173 173 177 182 186 188 192 195 190 188 184 184 188 186 190 192 197 192 195 190 192 192 190 188 192 188 190 192 190 192 190 188 186 186 186 182 184 186 186 182 184 182 186 190 190 192 192 195 197 199 199 203 201 201 201 203 203 199 197 199 197 197 199 197 197 197 197 197 197 195 195 190 188 186 186 186 188 188 190 190 190 186 184 180 180 177 177 182 184 184 184 188 190 188 186 182 180 182 177 173 169 165 160 156 160 158 156 154 156 158 160 165 167 171 173 175 175 177 180 182 184 186 188 184 188 192 190 195 195 199 199 197 195 195 195 197 201 201 205 203 203 203 203 203 203 205 207 205 205 205 201 197 195 195 199 201 201 201 203 201 197 192 192 188 192 192 190 192 192 195 192 195 195 195 195 190 188 184 182 177 175 173 177 175 175 171 169 169 171 171 173 169 169 173 173 169 167
152 154 152 147 145 150 145 145 147 152 156 158 162 165 167 171 175 180 180 180 180 180 177 175 177 177 175 175 171 169 167 169 171 169 173 177 182 184 184 184 184 180 180 177 173 173 175 175 175 180 180 182 182 186 184 182 186 190 186 188 184 180 177 173 169 165 160 158 156 162 162 165 169 167 162 160 156 152 147 150 145 143 147 147 150 152 152 154 152 152 147 143 139 137 139 143 147 150 147 147 147 145 150 154 156 152 150 150 145 143 141 145 143 143 143 143 141 145 143 147 143 141 137 135 130 126 126 126 130 132 132 135 137 137 139 141 141 141 141 137 135 135 135 139 139 139 139 141 143 145 143 139 137 141 143 141 139 139 141 137 135 130 126 130 126 126 126 126 122 124 126 126 126 122 124 120 117 115 113 111 109 107 109 113 113 117 120 122 122 126 124 122 117 117 120 120 115 117 117 120 117 117 122 124 124 128 128 130 128 128 128 130 132 135 132 135 132 135 135 137 137 135 139 143 143 145 145 145 141 137 141 145 143 147 150 154 158 158 158 158 156 154 158 162 158 160 162 165 165 165 165 169 171 173 171 171 167 167 167 171 167 169 173 175 173 173 171 169 167 171 171 173 169 171 175 177 175 175 180 175 171 167 162 158 154 150 147 145 143 147 147 150 145 143 145 150 150 150 150 152 154 152 156 160 160 160 160 162 165 165 167 169 173 173 169 171 175 182 184 188 192 197 199 195 190 188 186 188 190 190 195 199 195 197 195 197 197 192 192 188 188 192 195 190 188 188 184 186 184 184 182 186 188 186 184 184 182 186 188 192 195 195 195 197 201 199 199 201 199 197 201 203 199 199 201 199 199 203 199 199 199 199 199 197 192 190 190 188 188 186 190 190 186 186 190 192 188 186 182 180 175 175 180 182 182 182 184 186 188 184 182 177 177 180 175 171 169 165 160 162 158 156 150 154 156 160 165 169 169 173 173 177 180 182 182 184 184 186 186 188 190 195 195 199 201 201 199 195 197 197 199 203 201 205 205 205 205 205 205 205 207 210 207 205 205 201 197 195 195 195 197 199 199 201 197 197 195 195 192 190 188 195 197 195 195 192 197 197 197 197 195 190 186 184 180 175 175 175 180 175 173 171 171 171 173 175 173 171 175 175 171 169
156 154 152 150 145 147 150 147 150 154 158 160 165 165 165 169 173 175 177 175 175 180 177 177 175 175 173 173 171 173 171 169 169 171 175 177 180 184 186 186 186 182 182 177 175 177 177 175 177 180 182 180 180 184 180 180 184 186 188 186 182 180 175 171 167 162 160 158 158 160 165 165 169 169 165 160 156 152 150 150 147 145 150 150 150 150 154 154 150 150 145 141 139 137 139 143 143 147 152 150 147 147 150 152 154 152 147 147 147 145 143 141 143 147 143 145 143 147 147 143 141 137 137 132 130 126 126 130 132 132 135 139 141 141 143 141 141 141 141 137 135 139 137 137 135 137 139 143 141 141 141 139 139 143 143 139 135 141 141 137 135 130 126 126 124 122 122 122 120 120 122 122 122 122 122 120 115 115 113 109 105 105 105 109 109 113 115 117 117 122 124 126 122 120 117 115 113 115 115 117 113 115 117 120 122 126 126 126 124 126 130 130 132 135 132 132 130 130 132 132 135 135 139 141 141 141 145 141 139 139 141 143 143 147 152 154 158 158 160 160 158 156 158 160 158 160 165 167 167 165 165 167 171 175 171 169 169 171 171 171 171 171 173 173 173 171 171 171 169 173 173 171 171 175 180 182 180 177 180 177 173 171 167 162 158 154 152 147 145 147 152 154 150 145 150 152 150 154 152 156 158 154 154 158 156 160 162 167 167 165 162 167 169 171 171 175 180 184 188 192 195 197 197 197 192 192 190 192 192 195 199 201 199 201 199 199 201 197 192 190 192 197 197 192 188 184 182 182 180 182 182 184 184 184 184 184 182 184 186 190 192 195 199 199 197 201 199 197 195 195 197 199 201 203 201 201 197 199 201 203 203 203 201 197 195 190 192 188 186 182 188 188 186 190 195 195 190 186 182 177 175 173 175 180 177 180 180 184 186 184 184 180 182 182 177 175 171 167 162 160 158 154 152 152 156 160 162 167 167 169 171 173 177 177 180 182 182 182 184 186 188 192 192 197 201 199 199 197 197 199 203 203 201 203 205 210 207 205 201 205 203 205 205 205 203 201 199 195 192 190 192 195 195 199 199 199 197 192 192 190 190 195 199 197 197 195 199 195 199 199 195 192 186 184 180 175 175 175 177 177 175 175 175 175 177 175 175 173 171 171 171 171
152 154 154 152 150 152 152 147 147 152 156 160 165 167 165 169 169 173 173 171 173 177 180 175 175 175 173 177 175 171 169 169 169 171 175 177 182 184 186 184 182 180 177 177 175 177 177 175 180 182 186 184 180 182 182 182 182 182 184 184 182 180 175 171 169 165 160 162 160 165 167 167 165 169 165 162 158 156 154 154 152 150 152 150 152 152 154 154 150 147 145 145 141 139 143 143 147 145 150 147 145 147 147 150 150 147 145 145 143 143 139 137 139 143 143 141 143 143 143 141 137 137 132 130 126 126 126 128 132 137 139 143 145 145 143 143 143 143 139 135 135 135 137 132 137 141 141 141 139 137 139 139 139 139 141 139 137 139 137 132 130 132 128 126 122 117 122 120 120 117 117 120 120 117 117 115 111 111 109 107 102 102 102 107 107 111 113 115 117 122 124 122 117 115 113 111 109 111 113 115 115 120 117 122 117 122 122 124 120 122 126 126 130 135 135 130 126 128 128 128 130 130 135 137 139 139 141 145 141 141 145 143 147 150 154 158 160 158 156 156 156 158 162 162 158 162 167 171 167 165 165 162 169 171 169 169 169 169 169 167 167 171 171 169 169 167 171 175 173 175 177 175 173 177 182 186 182 182 180 177 173 171 169 165 160 156 152 150 150 152 154 158 154 150 152 154 152 154 156 160 160 156 158 158 158 162 165 165 165 162 162 165 167 171 173 177 180 184 188 192 195 199 201 199 195 195 195 195 195 199 203 203 203 205 203 201 203 199 197 195 197 199 197 192 188 186 184 184 180 184 186 186 184 184 184 184 182 182 184 188 192 195 197 199 199 199 199 195 192 192 197 201 201 201 201 199 195 199 201 205 203 203 203 201 197 195 192 188 184 184 184 184 188 190 192 195 190 186 184 180 175 173 171 175 175 175 177 180 182 182 182 180 177 177 175 173 173 169 167 162 158 154 152 152 154 156 158 162 162 165 167 169 173 177 180 180 177 180 180 182 186 188 190 195 199 201 197 197 199 203 203 203 205 207 205 207 205 203 203 203 201 201 203 205 201 199 199 197 195 190 188 190 195 199 199 203 199 195 195 192 195 197 199 199 195 197 197 195 195 197 192 190 186 182 180 180 177 180 180 177 180 180 177 177 175 173 175 171 169 169 169 171
152 156 154 152 152 154 150 147 145 150 154 158 162 165 169 173 171 171 171 171 175 175 177 177 175 175 173 173 177 173 171 167 171 175 177 182 182 186 188 186 182 180 180 180 180 177 180 177 182 184 188 188 184 182 182 186 184 182 184 184 184 180 177 173 171 169 165 167 165 167 169 167 167 167 165 165 162 158 156 152 152 154 154 152 156 154 156 156 154 152 150 145 145 143 147 147 147 145 145 145 145 145 150 152 152 152 150 150 145 145 141 139 141 139 139 139 139 139 141 137 137 132 130 128 126 130 130 132 137 141 143 147 147 145 145 145 147 145 141 137 132 132 135 130 135 139 141 139 135 135 139 135 139 137 137 135 137 139 137 132 130 128 124 124 120 120 120 122 120 117 115 115 115 113 115 111 107 107 111 107 105 102 102 105 107 109 111 113 117 120 120 117 113 111 109 107 107 111 113 117 117 117 120 117 115 120 117 120 120 122 124 128 132 135 130 128 124 124 126 126 126 126 130 132 135 137 141 145 145 143 147 145 147 152 154 158 158 158 158 158 158 160 160 165 160 158 165 167 165 162 165 165 169 169 169 169 171 169 171 167 162 167 169 167 167 167 169 173 177 180 180 180 177 177 182 186 186 184 182 177 175 175 171 167 162 158 156 154 154 154 158 160 156 154 150 152 152 156 160 162 165 160 162 160 162 165 169 169 169 167 167 169 169 171 173 177 182 186 188 192 197 201 201 201 199 199 197 199 197 201 205 207 205 207 207 203 205 203 201 199 199 199 201 197 192 192 188 188 184 186 188 188 188 184 186 184 182 184 188 190 190 192 195 199 201 203 199 197 195 197 199 203 203 201 199 197 192 197 199 203 201 199 199 197 195 197 192 190 186 188 186 188 192 190 195 192 190 186 186 182 177 175 171 175 171 171 173 177 180 182 182 180 177 175 175 175 173 169 165 162 158 158 154 156 156 158 158 160 160 162 167 171 175 177 177 175 175 177 180 184 186 188 190 195 199 199 197 197 197 201 203 203 205 207 207 203 203 201 203 203 199 199 199 201 199 197 201 197 197 195 190 195 195 199 201 201 199 195 199 195 199 199 197 197 195 197 201 199 197 199 195 190 186 184 184 184 182 184 184 182 182 182 182 177 175 173 175 173 169 169 171 173
152 156 156 152 147 152 147 147 145 147 152 154 158 162 165 169 167 169 167 169 173 175 175 177 175 175 171 169 173 173 171 167 171 175 177 182 184 184 186 186 182 182 182 182 184 182 180 177 182 184 188 190 186 184 182 184 180 180 182 184 182 180 180 177 173 171 169 171 169 169 165 169 167 169 167 169 165 162 158 156 152 156 156 154 154 158 156 154 154 152 150 147 147 147 147 145 143 141 141 145 147 145 147 152 154 154 150 150 147 145 141 139 137 135 135 135 137 137 137 137 135 132 130 132 130 135 135 137 141 143 145 150 150 147 145 147 145 143 139 135 132 130 130 130 132 135 139 135 132 132 135 132 135 132 132 132 132 135 137 135 132 128 126 126 122 120 122 122 122 117 115 111 111 111 111 107 105 102 107 102 102 102 105 105 105 107 109 113 115 117 117 113 111 107 107 105 107 111 113 117 120 117 120 120 115 115 113 115 117 122 124 126 128 130 128 126 124 120 124 124 126 128 132 130 135 137 141 145 147 147 152 147 152 154 154 154 156 158 158 158 158 162 162 165 162 160 162 165 162 162 162 167 169 171 169 171 173 171 169 165 165 165 165 165 165 169 173 177 180 182 184 184 182 182 182 182 182 182 177 180 175 175 173 169 165 160 158 156 156 156 156 156 154 150 150 154 154 156 158 160 162 158 158 162 165 169 173 173 173 171 171 171 171 175 177 182 184 188 190 192 197 201 201 199 203 203 201 201 201 203 205 203 207 212 210 207 205 203 205 203 203 199 201 201 197 197 192 190 188 188 190 190 190 188 186 184 182 186 190 192 190 190 195 199 199 203 203 201 197 199 201 203 199 197 197 195 192 192 197 199 197 197 195 195 190 192 190 186 186 186 188 192 195 192 192 192 188 184 182 180 177 177 175 175 171 171 173 177 175 177 180 182 177 175 173 173 171 167 165 160 160 160 156 158 158 160 160 158 158 162 167 171 175 175 173 171 173 177 182 184 188 192 190 195 197 197 197 197 197 197 201 201 203 203 203 205 203 199 199 199 197 199 203 201 199 195 197 197 195 195 192 197 195 199 199 197 201 199 197 197 197 201 197 199 195 195 197 199 195 197 192 188 188 188 188 188 186 186 184 180 184 186 184 180 175 173 173 171 169 171 167 169
150 152 152 150 150 150 150 147 145 147 150 150 154 158 160 165 165 167 169 171 169 173 173 173 171 171 171 169 169 173 173 169 169 173 175 180 184 180 182 182 177 182 184 184 186 184 182 180 184 186 190 188 186 186 186 184 180 182 184 186 184 182 182 180 175 175 173 175 173 169 167 171 171 171 169 167 165 160 156 156 154 158 158 158 158 160 156 156 154 152 154 150 152 150 145 141 139 139 141 143 143 145 150 154 150 150 152 150 147 147 143 139 137 135 137 139 139 137 139 141 137 137 132 135 132 135 137 139 141 143 147 152 150 147 147 145 143 141 139 137 135 132 135 132 128 132 135 132 130 132 130 128 132 128 128 130 128 130 132 132 130 128 126 124 122 122 126 124 120 120 115 111 109 107 107 102 100 100 102 107 102 107 107 107 105 109 109 111 111 115 113 109 107 105 105 102 107 109 113 117 117 115 120 117 115 111 109 111 115 117 122 124 128 126 128 126 124 122 126 122 124 128 130 130 132 137 139 143 147 150 152 152 152 152 152 154 154 158 162 162 160 160 162 162 162 160 160 160 160 165 167 169 167 169 169 169 171 171 169 169 165 162 165 169 169 169 173 175 180 180 180 182 182 184 182 182 180 180 177 175 173 175 173 171 167 162 158 156 154 154 154 152 152 152 152 156 158 156 156 158 160 162 160 165 169 173 175 177 175 175 173 173 175 180 182 186 188 190 192 195 197 199 201 197 201 201 203 199 201 205 207 205 205 210 212 210 205 207 207 205 207 205 203 205 201 199 195 195 190 190 192 192 192 188 188 186 186 188 192 197 195 192 190 197 199 201 205 203 199 201 203 201 197 195 192 195 192 190 192 195 192 195 190 190 186 188 188 184 186 188 192 195 199 195 195 190 186 184 180 177 173 173 177 177 173 175 175 175 171 175 177 180 175 171 173 173 169 165 162 160 165 165 160 162 160 165 162 162 160 162 167 171 173 175 173 169 171 175 180 184 188 190 195 197 197 199 197 199 199 201 201 197 199 201 201 203 201 197 199 197 192 197 199 199 195 195 197 197 192 195 192 192 192 197 195 192 199 203 201 201 197 201 201 199 197 195 195 195 190 192 190 188 188 190 192 188 184 184 182 177 180 184 186 184 180 175 173 173 169 167 167 167
150 152 150 150 152 154 154 152 147 150 147 147 152 156 160 160 158 162 167 167 169 169 169 171 169 169 169 169 171 171 175 171 169 169 173 175 180 175 180 177 175 180 182 184 184 180 180 177 182 184 186 186 186 188 188 186 182 182 184 184 182 184 184 182 177 175 173 175 173 171 169 167 167 171 171 167 162 162 160 160 156 158 160 162 160 160 158 156 152 152 150 150 150 147 143 139 137 135 137 139 141 145 147 150 147 147 150 150 147 145 143 139 137 137 139 137 137 141 143 139 137 132 135 135 135 137 139 143 145 147 152 152 150 147 150 147 147 145 143 139 137 135 132 128 124 128 130 128 128 130 126 126 128 126 124 128 126 128 128 128 128 124 128 126 122 124 124 122 117 120 115 111 107 105 102 102 102 100 102 107 105 107 107 105 102 105 105 107 109 111 109 107 105 102 102 102 105 105 109 113 111 115 115 115 111 111 109 109 111 113 117 122 126 124 126 124 124 124 126 122 124 124 126 128 132 137 141 143 147 152 152 152 156 152 154 154 152 156 158 162 160 162 160 160 162 158 156 160 160 165 165 167 167 169 165 165 167 169 171 169 167 162 167 171 171 171 169 173 177 175 177 177 180 182 177 180 175 175 175 173 171 171 173 171 167 162 160 156 154 152 150 150 152 152 156 160 160 158 156 156 156 158 162 165 169 173 177 180 177 180 175 175 180 182 186 186 186 190 192 195 199 201 199 195 199 201 203 199 199 201 205 205 207 210 210 210 207 210 212 210 212 210 207 210 205 203 199 197 192 195 197 197 192 190 188 188 188 188 192 197 197 192 192 192 195 199 203 203 201 205 201 197 195 195 192 192 188 188 188 192 188 190 186 188 186 188 188 184 188 190 192 192 195 190 192 188 186 182 177 173 169 171 173 175 175 177 177 175 173 175 177 175 173 171 173 171 167 162 162 165 169 169 165 167 165 167 165 165 160 162 167 171 173 175 171 169 171 175 180 184 188 192 197 199 199 197 195 195 197 201 201 197 195 197 199 199 197 195 195 195 192 192 197 195 190 197 197 192 192 195 195 197 192 192 195 195 199 203 205 203 201 201 201 197 195 192 195 192 188 190 188 186 186 188 188 186 184 182 177 177 177 180 184 186 182 180 177 173 169 169 169 171
158 150 150 150 152 156 152 150 147 150 147 147 150 152 156 156 156 160 162 162 167 165 165 167 169 169 171 171 175 173 173 175 173 169 173 173 175 173 175 175 175 177 177 180 182 180 175 175 177 180 184 184 186 188 190 186 184 182 182 182 177 182 182 180 175 173 175 173 173 169 169 169 167 167 169 169 167 162 160 158 158 160 162 165 165 162 160 160 156 156 152 154 150 145 141 137 132 130 132 137 139 141 145 145 143 143 147 145 143 143 143 139 141 139 141 139 141 139 139 137 132 130 132 135 137 139 141 143 145 150 154 152 147 147 147 152 150 150 147 143 139 135 130 128 124 126 128 124 126 130 128 130 130 126 124 124 122 124 126 126 124 122 124 126 122 120 120 117 113 117 113 111 109 109 107 102 105 102 107 107 107 111 107 105 102 102 105 105 107 107 105 105 100 100 105 102 107 107 109 109 109 111 111 111 113 113 111 113 109 111 115 120 122 124 122 122 126 124 126 124 126 128 130 130 130 135 139 143 143 147 150 150 152 147 152 152 152 154 158 160 160 162 160 160 162 160 158 160 165 167 165 165 167 165 167 165 165 165 169 167 167 165 167 171 169 171 171 171 173 175 175 175 175 177 173 175 173 173 175 171 173 175 175 171 167 165 160 156 154 154 154 154 156 154 156 160 165 160 158 160 160 158 162 167 171 175 177 182 180 180 180 180 184 186 188 190 190 192 195 197 199 197 197 195 199 201 199 197 195 199 203 205 210 212 210 207 207 212 216 214 216 212 212 214 210 207 203 201 197 197 199 199 197 192 190 192 192 192 195 197 195 195 195 192 197 199 201 203 201 201 197 197 197 197 195 190 188 186 184 188 186 186 184 188 186 186 186 188 192 192 192 195 195 190 190 188 184 180 175 171 167 171 175 177 175 177 175 173 177 175 175 171 175 171 173 169 165 162 167 169 173 171 169 171 169 167 165 162 162 165 167 171 173 175 173 171 175 180 184 186 190 195 199 201 197 195 192 190 195 199 199 197 199 201 203 201 197 195 192 192 195 192 192 192 192 195 195 192 192 195 192 197 192 192 195 195 199 203 203 207 203 203 199 199 197 192 192 188 186 188 184 184 186 188 188 188 184 182 180 180 180 180 182 182 182 182 180 175 171 171 171 169
147 145 150 154 154 154 152 147 147 147 147 150 150 147 152 152 152 156 158 160 162 167 165 162 165 167 169 171 175 177 175 173 171 171 171 173 173 169 173 171 173 177 173 177 180 177 173 173 173 175 180 184 188 190 192 188 186 184 182 180 177 177 177 177 173 171 171 171 169 165 165 169 165 167 169 173 169 165 162 160 160 160 162 167 167 165 165 160 156 158 154 154 150 143 141 137 130 128 130 132 137 137 141 143 139 141 143 145 143 143 145 143 139 141 139 139 141 143 141 139 135 130 135 137 141 143 143 143 147 152 154 152 147 150 150 154 150 152 150 145 141 139 135 130 126 124 124 122 126 128 130 126 126 124 126 122 120 120 122 122 122 122 122 122 124 120 117 113 111 113 111 109 109 111 109 107 105 107 105 102 105 107 107 105 105 105 107 105 105 107 105 102 100 100 100 100 102 107 107 105 105 107 107 107 109 111 107 111 109 113 117 122 122 124 124 126 128 128 128 128 130 130 128 132 132 135 137 141 141 143 145 145 147 147 147 147 150 152 156 158 156 158 160 165 167 162 162 165 165 165 160 165 165 162 165 169 165 167 165 165 165 165 165 167 169 173 171 173 173 173 171 171 171 173 171 173 173 173 175 173 173 175 180 175 171 167 162 158 156 154 154 156 156 156 158 162 167 165 162 162 165 162 162 165 167 171 175 180 184 184 184 184 188 190 190 195 195 195 197 199 195 195 195 195 195 199 197 197 197 201 203 207 212 214 210 210 210 210 214 216 218 216 216 216 212 212 207 203 199 201 201 199 195 197 192 197 197 195 197 195 192 195 190 190 192 197 199 199 197 201 197 199 201 197 195 190 186 186 186 186 184 184 184 184 184 184 188 192 195 197 197 197 197 195 188 184 182 177 173 169 167 171 175 177 175 173 173 171 175 177 175 171 175 173 171 167 165 162 165 169 171 169 167 167 169 167 162 162 160 162 165 169 169 173 171 171 175 177 182 186 188 192 197 199 199 195 192 190 195 195 197 199 201 199 201 197 192 195 192 195 195 192 192 195 190 190 195 192 195 195 190 195 190 195 195 199 199 201 203 201 201 199 195 199 197 192 192 188 186 190 188 184 186 186 186 186 182 186 182 184 184 180 180 177 177 180 180 177 175 175 171 167
139 143 147 150 154 152 150 147 145 143 143 147 147 143 147 147 147 152 154 158 160 162 165 162 160 165 169 169 171 173 177 175 175 175 175 175 173 169 171 169 169 173 173 173 175 175 173 175 173 177 182 186 190 192 190 190 188 186 182 177 177 175 175 173 173 171 169 167 169 165 165 167 165 165 169 171 169 165 162 162 160 162 165 167 167 165 165 162 158 160 156 152 147 143 139 135 130 128 128 130 132 137 139 139 139 141 141 143 145 143 145 141 137 139 137 139 143 145 145 141 137 132 132 137 139 143 147 145 150 150 154 152 150 152 150 152 150 154 154 150 145 139 135 132 128 124 122 122 124 126 130 126 122 122 124 126 122 124 124 124 124 126 126 124 122 120 117 113 111 115 115 111 111 111 107 102 102 102 102 105 109 105 105 105 102 105 105 109 109 111 107 105 100 98 96 96 100 105 102 100 100 102 102 105 105 109 107 107 109 113 115 120 124 126 126 128 124 130 132 130 132 132 128 132 130 130 135 139 137 141 143 141 143 145 150 147 152 154 156 156 152 154 156 160 165 162 165 165 162 162 160 160 160 160 165 167 167 165 167 167 162 165 169 169 173 173 171 171 175 171 169 169 169 171 171 173 175 173 175 175 175 177 182 177 171 167 162 160 156 154 156 158 158 158 160 160 165 169 167 167 167 167 167 169 171 171 173 177 182 186 188 184 184 188 190 190 195 197 199 195 192 190 195 199 197 197 197 197 199 203 205 210 214 216 214 212 210 214 218 218 218 220 218 220 216 212 212 207 203 199 199 197 195 197 197 201 199 195 195 192 190 192 195 190 192 192 195 195 192 197 201 201 201 197 192 188 184 188 188 184 184 184 184 180 180 182 186 188 192 195 199 197 197 192 188 186 182 177 173 171 169 169 173 175 173 171 173 171 173 175 177 175 173 173 171 169 165 162 165 169 169 169 167 167 167 169 165 160 158 158 162 167 165 169 167 171 173 175 180 182 186 188 192 195 197 195 192 192 192 195 199 201 201 197 197 192 190 190 192 195 199 197 197 192 188 190 192 195 192 192 190 190 186 190 192 195 199 203 199 199 197 197 197 197 201 197 195 190 188 190 192 188 188 186 184 184 182 182 186 188 186 184 182 180 180 182 182 180 175 171 167 167
139 141 145 150 152 156 152 150 147 145 145 145 143 141 143 145 145 147 152 156 158 160 160 160 158 160 165 167 167 171 175 173 175 177 177 173 171 167 169 167 167 171 173 177 175 175 175 175 175 177 182 184 188 190 188 186 186 184 182 177 175 175 175 171 171 173 171 167 167 165 167 165 165 169 169 173 171 167 165 160 160 160 162 165 162 162 162 160 158 156 154 150 145 143 139 135 130 128 130 130 130 132 137 137 135 141 145 141 145 145 143 139 135 135 135 137 139 143 145 141 139 135 135 139 141 145 145 147 145 147 150 150 154 154 154 156 152 154 154 152 147 143 139 135 130 126 124 122 122 122 126 124 124 124 126 124 124 128 128 126 128 126 124 122 117 115 113 113 113 117 117 115 115 113 109 107 102 105 102 107 109 107 109 105 102 105 109 113 111 107 107 102 98 96 92 98 96 100 100 98 96 100 100 100 102 107 107 105 107 111 113 117 122 126 128 126 126 130 128 132 135 130 130 130 128 128 130 135 132 137 141 137 143 145 150 152 154 154 156 154 150 150 154 156 158 162 162 162 158 158 156 158 160 158 160 162 162 162 165 162 158 162 165 167 169 169 169 169 171 171 171 171 171 171 171 173 177 177 177 180 180 180 182 175 171 167 162 160 156 158 156 160 162 162 165 165 167 171 171 171 171 171 169 171 169 173 175 180 184 188 190 188 186 188 190 192 192 195 197 192 190 192 197 199 199 199 199 199 199 203 207 212 216 220 216 214 214 214 218 220 220 225 220 216 212 210 207 205 205 203 203 201 199 199 201 203 199 197 195 190 190 195 195 192 195 195 190 192 192 195 199 201 199 195 190 188 184 184 186 186 186 184 180 177 180 184 188 190 190 192 195 197 195 192 188 184 180 177 177 173 171 169 169 171 171 171 171 173 173 175 175 175 173 175 171 167 165 167 165 167 165 167 162 162 165 167 165 160 156 156 158 162 162 165 167 169 171 173 177 180 182 184 188 192 195 195 192 188 190 195 197 199 197 195 195 190 188 188 192 195 195 195 195 190 188 188 190 195 195 192 190 188 188 190 190 192 195 199 197 195 195 197 197 199 203 201 197 192 190 195 192 188 190 188 186 184 182 184 184 188 186 188 186 182 184 184 180 182 177 175 171 167
139 141 145 147 150 152 147 154 152 150 147 143 141 141 141 143 145 150 154 158 162 158 158 160 156 160 162 165 167 169 173 173 175 177 180 175 171 167 169 167 167 169 173 175 177 177 177 180 177 177 182 186 188 188 184 184 186 182 182 180 177 177 175 173 175 175 171 171 169 167 171 167 169 171 171 171 171 167 165 160 162 160 165 162 165 162 160 158 156 154 150 145 143 141 139 135 132 128 128 132 130 132 132 137 137 139 141 143 143 145 143 139 137 139 137 141 143 145 143 141 141 139 139 143 141 141 143 143 143 147 152 152 156 156 158 158 156 156 152 150 147 145 141 137 132 128 126 124 126 124 124 124 128 128 126 128 128 128 130 130 128 128 124 120 117 113 111 109 111 115 120 115 115 113 111 109 107 107 105 109 109 111 113 109 107 109 109 111 111 107 105 102 98 94 94 96 94 96 96 94 92 96 98 98 102 102 105 102 105 109 113 117 122 126 128 128 130 132 130 130 132 132 130 132 130 130 130 135 135 137 139 139 141 145 150 154 154 154 152 152 150 150 150 154 154 158 158 160 160 162 158 160 160 158 160 160 162 167 167 162 160 162 167 165 167 167 167 165 171 175 173 173 175 173 173 175 180 180 180 184 184 184 184 177 173 169 167 162 158 156 156 160 165 167 169 167 171 175 173 173 173 175 173 169 165 171 175 180 184 186 186 182 186 186 190 192 192 195 197 195 192 195 199 203 199 201 201 199 199 203 207 212 214 216 216 214 216 218 222 222 222 220 218 214 210 205 203 203 203 207 205 205 201 203 201 199 197 195 195 190 190 192 195 195 197 192 188 190 192 195 199 197 197 197 192 188 184 182 184 184 184 182 180 177 180 182 186 190 188 192 192 195 190 190 190 186 184 182 182 177 175 173 171 175 175 171 171 173 175 177 175 175 175 177 173 171 169 171 167 165 162 162 160 160 160 162 167 162 158 154 154 158 158 160 165 169 171 173 175 175 177 182 184 188 190 190 188 192 192 192 192 197 192 192 192 190 190 190 192 195 195 195 197 192 190 190 192 195 199 195 190 192 190 190 188 192 192 195 192 190 190 195 199 201 203 201 201 197 195 195 192 190 195 190 190 188 184 188 186 188 190 192 190 186 186 182 180 182 180 175 171 167
135 137 141 145 145 150 150 152 152 147 145 145 145 145 145 147 147 152 154 158 158 156 154 158 156 158 160 165 165 169 171 169 173 175 175 173 171 169 169 169 167 169 169 173 175 177 180 182 180 180 184 186 188 186 184 186 184 184 186 182 177 180 180 177 177 177 175 173 171 171 171 171 171 173 173 171 169 167 165 160 165 160 160 160 160 158 158 158 154 150 147 143 139 143 141 137 135 130 130 132 132 135 137 141 141 143 143 143 145 150 147 143 141 143 141 139 139 143 145 141 141 143 141 143 141 143 145 145 145 145 150 154 156 160 160 160 156 152 147 147 147 145 143 139 135 130 130 128 130 126 126 126 128 128 128 132 130 130 132 132 130 128 124 120 115 111 111 111 113 115 115 113 113 115 113 113 109 111 107 107 111 113 111 109 109 109 107 109 111 111 107 105 100 98 94 92 90 94 92 90 87 92 96 96 98 102 100 98 100 107 111 115 120 124 128 132 130 135 135 132 128 128 130 135 130 135 135 135 137 139 139 141 143 147 152 154 152 152 147 150 145 150 147 152 152 156 158 158 162 162 160 156 158 158 158 158 160 162 165 165 160 165 165 162 165 169 167 167 169 173 175 171 171 173 173 175 180 184 184 186 188 186 182 177 173 169 167 162 158 158 160 165 169 169 171 169 173 173 173 177 173 171 171 169 167 171 175 180 182 186 184 184 184 186 188 190 190 192 195 195 192 192 197 199 199 199 201 201 201 205 210 214 218 216 214 214 218 222 227 227 225 220 216 214 210 205 203 203 203 205 207 205 203 205 201 199 197 197 195 192 192 192 192 197 197 192 188 192 192 192 197 195 192 192 188 184 182 180 180 180 182 182 180 182 180 182 184 186 184 188 190 190 188 190 190 188 186 186 184 180 180 175 175 175 177 173 171 171 173 175 173 173 177 175 171 171 173 173 169 165 162 162 160 160 162 165 165 165 160 158 156 160 158 160 165 167 169 171 171 173 173 177 182 184 186 184 184 188 190 192 192 195 190 190 190 190 192 192 192 195 192 192 197 192 195 195 195 199 203 199 195 197 195 190 188 192 190 190 190 190 195 195 199 201 203 201 203 201 197 192 192 192 192 190 192 190 188 190 188 190 195 195 195 190 188 184 182 180 180 177 173 169
141 139 143 145 145 147 150 150 147 147 147 147 147 147 147 150 152 154 158 160 158 154 152 154 158 162 162 165 165 165 167 165 169 171 173 171 171 169 169 169 167 167 169 173 175 180 184 182 182 184 188 188 188 188 188 188 186 188 188 184 182 180 182 182 182 182 177 175 171 175 175 175 175 173 173 171 169 171 169 165 160 160 162 160 162 162 158 156 152 150 145 139 137 139 143 139 135 130 132 137 130 137 139 143 145 147 143 145 150 152 152 147 143 147 143 141 143 145 145 143 141 143 139 141 141 143 147 150 147 145 150 154 154 156 156 156 152 147 143 145 147 143 145 141 137 132 132 130 126 130 130 126 124 124 128 128 130 132 135 137 135 130 126 122 117 113 111 111 113 117 113 113 113 115 115 111 111 113 111 111 111 111 109 109 105 107 105 107 107 109 109 105 100 98 94 90 87 90 87 85 83 87 92 94 96 100 96 98 102 107 111 113 117 122 126 130 132 137 132 130 126 126 128 132 132 137 135 132 135 137 137 139 143 147 152 152 147 147 143 150 147 147 147 152 152 154 158 162 160 160 156 154 154 156 158 158 158 162 165 162 160 162 160 160 165 169 169 167 167 171 173 171 173 175 175 175 180 184 188 188 190 188 184 180 175 171 167 165 160 162 162 165 167 165 171 171 173 177 173 173 175 173 171 171 171 173 177 177 182 186 186 184 186 188 188 188 188 192 195 195 192 197 197 197 197 197 201 203 205 210 214 214 216 218 214 218 222 225 229 229 225 220 216 212 207 203 201 201 203 207 210 205 203 201 199 197 195 195 192 192 197 192 195 195 199 195 192 192 190 190 195 192 190 188 184 184 182 182 180 182 177 177 177 177 177 182 184 182 182 184 188 186 186 186 190 186 186 184 182 182 184 180 175 173 175 173 171 169 171 173 177 175 175 177 173 175 175 173 169 169 165 165 162 162 158 160 165 162 158 158 160 160 160 165 167 167 169 171 173 175 175 177 182 184 182 182 180 184 188 190 195 192 192 192 195 190 192 195 192 197 195 195 197 197 195 197 199 203 205 203 199 201 199 195 190 190 188 188 192 195 195 197 201 205 201 201 203 201 197 192 195 195 195 192 192 195 192 192 192 195 199 199 199 195 190 186 184 180 180 177 173 169
137 141 139 143 145 150 152 150 150 152 147 147 150 152 152 154 152 156 160 162 160 156 152 154 158 160 162 165 162 165 165 165 165 169 169 173 175 171 169 173 169 169 169 173 177 180 182 184 186 188 190 190 190 190 192 188 188 190 186 184 186 184 184 186 186 186 182 180 175 177 175 180 175 175 177 173 173 169 165 162 162 165 162 160 162 165 158 156 152 147 143 139 137 137 139 137 132 132 135 135 132 137 139 143 147 150 145 150 154 154 154 152 147 150 145 145 147 147 147 143 143 143 139 141 145 147 150 150 150 147 145 150 152 154 152 152 147 143 141 143 143 143 141 141 137 132 132 130 126 126 126 124 120 120 124 128 130 135 137 137 137 132 128 126 122 117 115 115 115 117 117 115 117 120 115 111 111 115 115 113 113 109 105 105 100 105 102 107 109 111 111 107 102 98 94 92 87 87 85 85 85 87 87 92 96 98 98 100 105 109 113 117 122 126 128 132 137 137 132 130 126 126 130 132 132 132 132 132 135 137 141 141 145 147 150 147 145 145 145 147 147 150 150 150 152 154 158 162 158 156 152 152 154 156 158 160 160 162 162 162 165 165 165 162 167 171 173 169 167 169 173 171 173 173 177 173 177 182 186 186 188 184 180 175 171 167 167 165 162 162 165 169 169 167 167 171 171 173 169 171 173 175 175 173 175 177 180 180 182 184 184 184 184 184 188 184 188 190 195 195 192 195 192 192 192 195 197 199 203 207 212 214 214 214 212 214 218 222 227 225 220 216 214 210 205 203 203 205 205 207 207 205 203 201 199 197 197 197 195 197 192 192 192 195 197 192 192 195 190 190 192 190 188 186 184 184 182 184 182 180 175 175 175 173 173 177 180 180 177 180 184 188 186 184 186 184 184 180 180 182 184 180 175 173 171 171 169 169 169 171 175 177 175 177 173 177 175 171 167 171 167 165 162 160 160 162 167 162 158 160 165 162 165 167 171 171 171 175 173 177 175 177 177 182 177 177 175 180 184 188 192 192 192 197 197 195 192 195 197 199 197 197 197 201 199 201 199 201 203 203 201 203 201 197 192 190 188 190 192 197 197 197 199 201 203 201 201 203 199 197 197 195 195 192 195 197 197 192 195 199 195 199 199 195 190 188 186 184 182 177 173 169
132 137 137 139 143 147 147 152 150 152 147 145 145 147 150 150 152 154 158 160 160 158 156 154 158 160 165 167 162 167 165 167 165 167 171 175 177 175 173 171 171 169 173 177 180 180 184 188 190 192 190 192 192 192 195 190 190 190 188 188 188 186 186 188 190 188 184 182 180 180 180 182 180 180 177 175 173 171 167 165 165 167 165 165 165 160 158 156 152 147 143 139 137 137 139 137 132 135 139 135 132 137 141 145 150 154 150 154 156 154 154 152 150 152 150 150 152 147 150 145 145 141 141 143 147 150 150 150 147 145 145 150 154 152 150 147 143 141 137 139 143 141 139 137 132 130 128 126 124 124 124 122 117 120 124 128 132 137 139 139 137 132 128 124 122 120 122 117 117 117 120 120 122 122 120 115 115 117 117 113 115 111 107 102 100 100 100 105 109 113 113 109 105 102 98 94 90 87 83 85 85 90 92 96 98 102 102 100 105 109 113 117 120 124 128 132 132 137 132 132 128 128 132 130 132 135 135 135 139 139 143 143 141 147 150 150 145 147 145 145 150 152 154 152 154 154 156 160 156 152 152 154 156 158 162 162 160 165 162 162 167 169 169 167 167 171 175 173 171 171 175 175 175 173 175 173 177 180 182 184 184 184 180 175 171 169 171 169 165 167 167 169 167 167 169 167 169 173 169 173 175 177 175 177 177 177 177 182 182 182 182 184 188 186 186 186 190 195 197 195 192 190 190 192 195 197 195 197 199 203 207 212 212 210 212 214 218 220 222 222 218 214 210 205 205 205 205 207 207 210 207 207 205 203 203 201 199 197 192 192 190 190 188 195 195 195 195 192 190 192 195 190 190 188 186 186 186 182 177 175 171 173 175 175 173 175 180 177 177 177 182 184 182 182 182 184 186 184 184 186 184 182 177 173 169 169 165 169 169 169 173 175 177 175 173 175 171 169 167 169 169 165 160 158 162 158 162 165 160 165 165 167 167 169 173 173 173 177 175 173 175 175 177 180 175 173 173 177 182 186 188 190 192 197 195 192 190 190 195 199 197 199 201 199 195 197 199 199 201 201 203 201 199 195 195 192 192 192 197 199 197 195 195 197 199 197 197 199 195 192 197 195 197 192 192 197 197 195 195 197 195 195 195 190 190 190 186 186 182 177 173 169
135 137 132 137 141 143 145 147 152 147 145 145 143 147 147 145 147 150 154 158 158 162 160 158 158 160 165 167 167 169 167 171 169 169 173 175 180 177 173 171 169 173 175 177 182 182 184 188 190 188 188 190 192 195 195 192 188 186 188 188 192 188 186 186 188 188 184 186 184 180 182 184 180 177 175 173 169 169 167 165 165 169 165 167 165 162 158 158 154 150 145 141 139 139 137 137 132 135 139 139 137 141 143 147 152 156 154 158 154 152 150 147 150 147 145 150 152 150 147 145 143 143 143 145 147 147 147 152 147 147 147 147 152 150 145 145 141 141 137 137 139 141 137 135 130 128 126 124 122 124 124 120 117 117 122 124 128 132 137 135 137 135 130 126 126 122 124 122 120 120 120 124 126 126 122 117 120 117 115 115 115 111 107 105 98 100 100 105 109 109 109 109 105 102 98 94 92 87 83 85 87 92 96 98 102 105 105 102 107 109 113 117 122 126 126 130 130 135 135 132 128 132 130 130 128 132 132 132 135 139 143 145 143 145 150 152 147 145 145 150 147 150 154 154 156 158 158 156 152 150 152 154 158 162 165 167 165 162 162 167 169 173 173 171 167 171 173 175 175 175 173 173 171 175 173 173 175 177 182 184 184 180 180 175 171 169 171 173 169 169 167 169 167 162 169 169 171 171 171 173 175 173 173 177 175 177 177 180 180 180 182 186 186 186 188 188 192 197 197 195 197 195 195 195 195 195 192 192 197 201 203 207 207 210 212 214 214 216 218 218 216 214 210 207 203 207 207 212 212 212 207 205 201 205 201 201 203 199 195 192 190 190 190 192 197 197 195 192 195 192 192 192 192 188 186 186 182 180 175 177 175 175 175 173 175 177 177 175 177 180 180 180 182 184 180 184 188 186 186 184 182 177 175 171 171 169 167 167 165 165 169 173 175 175 177 173 169 167 165 165 165 165 160 158 158 158 160 162 165 169 167 167 162 167 169 171 171 173 173 173 173 173 177 177 175 173 173 177 182 186 190 190 192 195 195 197 192 195 197 201 199 201 201 199 195 195 197 197 197 197 201 197 199 197 197 197 195 197 197 197 195 195 195 197 197 195 195 195 192 188 192 195 199 195 192 195 195 199 195 192 190 190 190 188 186 188 184 186 184 180 175 171
139 137 135 135 139 141 143 147 147 145 143 141 139 143 145 143 143 147 150 154 156 158 162 160 158 158 160 165 167 169 171 171 171 173 175 180 180 175 171 167 167 171 175 177 182 184 188 190 195 190 192 192 197 192 190 188 186 184 186 188 192 190 186 186 184 186 188 190 188 184 186 184 182 182 180 175 171 169 171 169 165 169 167 167 167 165 160 156 154 150 150 145 143 139 137 137 135 137 141 141 139 143 145 150 150 154 156 158 156 154 150 147 145 143 143 147 150 152 147 145 143 145 145 145 145 145 145 147 150 147 145 147 150 145 147 143 139 137 139 137 141 139 137 132 128 124 126 124 122 124 120 120 117 122 124 124 128 130 135 132 137 132 132 130 128 128 128 126 124 124 124 128 130 130 126 122 122 120 120 120 115 111 107 102 100 100 102 107 105 105 107 107 109 107 102 98 94 90 85 87 90 94 96 100 105 109 109 105 109 109 113 115 120 124 122 126 128 132 137 132 130 130 130 126 126 130 130 130 132 137 141 143 145 147 152 152 150 145 147 147 143 147 150 152 156 158 156 154 150 150 154 158 162 165 169 169 165 165 167 165 169 171 173 171 169 169 169 173 175 175 175 173 173 177 173 173 173 177 182 184 186 184 180 175 173 169 169 171 171 167 165 165 165 165 169 173 175 173 175 175 173 171 169 173 171 175 177 177 177 182 184 188 186 186 190 192 197 199 199 197 199 197 199 195 195 197 195 192 195 199 203 205 210 212 214 216 216 218 216 214 214 212 207 203 201 205 210 214 212 212 210 205 203 207 205 203 201 199 197 192 190 195 195 197 199 197 192 197 195 192 192 195 195 190 186 182 180 175 175 175 180 180 175 171 173 175 177 175 180 182 177 177 177 182 177 180 184 188 184 182 177 175 173 171 173 171 169 167 162 162 167 171 173 177 175 171 167 162 160 162 160 165 160 158 156 156 158 160 165 167 165 165 160 162 167 169 167 171 173 175 175 175 175 175 173 173 177 182 186 188 192 190 192 192 197 199 195 197 197 199 197 199 197 197 195 190 195 197 195 195 197 197 199 197 199 195 195 197 201 199 199 195 197 195 192 192 192 192 188 184 188 192 197 197 197 197 195 195 197 195 195 190 188 186 184 184 184 184 180 177 173 171
137 137 135 135 137 139 141 143 143 145 143 139 139 139 141 139 141 145 145 150 152 156 158 156 158 156 158 160 162 167 169 169 169 171 175 177 180 177 173 169 169 171 175 177 182 184 188 192 192 190 195 192 195 190 186 186 184 182 186 186 188 188 188 186 184 188 186 190 186 186 188 188 186 186 182 177 175 173 169 169 167 169 169 169 165 165 160 156 158 154 154 150 145 141 139 139 137 139 143 145 141 139 143 147 147 152 154 156 156 156 154 150 145 143 143 143 147 147 147 145 145 147 145 147 145 141 143 145 147 143 141 143 145 143 143 139 135 135 135 135 139 137 132 130 126 124 128 126 124 122 122 124 120 120 122 124 126 128 130 130 135 132 137 135 132 130 132 130 126 128 126 128 130 130 128 126 124 120 120 117 113 109 107 102 100 100 102 105 102 105 107 105 105 109 105 100 98 94 90 87 90 92 96 100 105 107 111 107 109 109 111 113 117 120 117 124 126 130 135 135 132 132 130 128 126 128 126 128 130 135 139 143 147 150 150 150 147 147 150 145 143 145 150 152 154 154 154 150 150 154 158 160 160 165 167 169 165 169 169 165 169 171 173 169 169 173 169 169 173 171 171 175 175 177 175 175 177 182 184 184 182 182 182 177 175 171 173 169 169 169 169 169 165 169 171 175 175 175 173 171 171 167 169 171 169 173 175 175 180 182 182 184 188 188 192 197 201 203 199 201 199 197 197 195 190 195 192 195 197 199 203 207 212 216 218 220 216 216 216 214 212 210 205 203 201 203 207 210 210 210 207 205 203 203 205 205 203 201 197 195 192 195 199 197 197 195 192 197 195 192 192 195 195 190 188 184 180 177 175 177 180 177 173 171 169 171 175 180 180 184 180 177 175 177 177 182 182 184 182 180 177 177 175 175 177 175 171 167 167 167 169 171 173 175 171 167 162 160 158 158 156 160 160 156 152 154 158 160 162 165 165 160 160 160 165 169 167 171 175 177 180 180 180 175 175 177 180 184 188 192 197 195 195 192 195 199 197 201 197 201 197 199 197 195 192 190 192 195 190 192 197 195 197 199 199 197 197 201 203 199 199 197 199 197 195 192 190 188 184 184 186 190 195 197 195 192 192 192 195 195 190 188 186 184 180 180 184 180 177 175 171 167
137 137 135 137 141 143 145 143 145 147 143 139 139 141 141 139 139 141 143 147 152 154 156 156 160 156 158 162 165 169 173 169 171 173 177 180 177 175 173 173 171 167 173 177 182 184 188 192 190 190 195 192 190 186 182 184 182 177 184 188 186 190 188 184 184 188 186 188 190 190 188 188 186 188 184 180 177 173 171 167 167 167 167 167 167 165 162 160 160 158 154 150 147 145 141 141 141 143 143 143 139 135 139 143 147 150 150 154 156 158 156 152 147 145 145 147 145 143 143 145 143 145 145 145 141 141 143 143 145 143 139 141 141 139 139 139 135 132 130 130 135 132 130 126 122 122 126 126 122 122 124 126 122 124 126 128 128 128 126 130 132 135 139 139 137 135 137 135 130 130 130 130 128 128 124 122 120 117 117 113 111 111 107 102 100 102 105 105 100 105 105 105 102 107 105 102 100 96 94 92 94 94 96 98 102 107 111 111 111 111 113 115 120 122 120 124 126 130 135 137 135 135 135 130 126 130 128 130 132 132 137 141 145 150 145 145 143 143 145 147 145 145 145 147 152 150 150 150 152 154 156 160 158 160 165 165 162 167 169 167 167 169 173 169 169 173 171 169 173 173 175 177 175 175 180 177 180 184 188 184 186 184 184 180 177 175 175 171 173 173 171 173 169 169 173 177 180 180 175 173 171 167 165 169 169 171 171 173 177 180 182 186 188 192 195 199 203 203 199 197 195 195 192 192 192 195 192 195 195 199 203 205 210 214 216 218 216 214 216 212 207 205 203 203 201 205 207 205 205 207 205 205 207 205 201 203 201 197 192 192 195 197 201 199 197 199 197 195 195 197 195 190 190 188 186 182 177 173 177 180 177 173 171 169 165 167 171 173 175 180 180 175 173 173 177 177 180 180 177 180 177 175 171 173 175 177 173 169 171 171 171 171 171 171 167 162 158 158 156 160 156 158 158 154 152 156 160 160 162 160 160 160 162 160 162 167 171 173 177 182 182 182 182 180 180 182 184 188 192 197 199 199 199 197 197 199 201 201 197 201 201 201 197 192 190 190 188 190 186 190 192 192 197 197 195 197 201 203 201 199 197 199 197 195 192 190 186 184 180 182 186 190 192 197 192 197 192 195 195 195 190 192 190 186 184 182 184 180 177 173 171 167
143 137 137 139 137 139 141 141 145 147 147 143 141 143 143 141 141 145 145 145 150 150 152 156 158 160 160 162 167 171 169 173 175 175 180 180 177 173 171 171 169 169 171 173 177 182 186 188 186 188 190 190 186 184 182 182 182 180 182 186 184 186 188 184 186 188 186 186 186 186 186 188 186 190 186 182 180 175 173 171 171 171 169 171 167 165 162 160 160 160 156 154 150 145 143 143 143 141 141 139 137 132 135 139 143 145 147 152 156 160 156 152 150 147 143 143 143 141 141 143 139 141 143 141 139 139 139 139 143 141 137 137 137 137 137 141 139 135 130 130 135 130 128 128 124 120 122 124 122 124 128 130 126 128 128 130 128 130 128 128 132 135 139 141 141 139 141 137 135 135 135 135 132 128 126 122 117 113 113 115 113 113 109 105 102 105 102 100 96 100 102 105 100 102 107 105 102 100 98 96 96 96 96 98 100 105 109 113 113 113 117 117 117 120 124 126 130 135 135 135 135 137 132 135 130 130 130 132 130 132 137 141 143 145 141 143 139 139 143 145 141 143 143 145 147 147 150 152 156 154 156 156 154 156 160 160 158 162 165 165 167 165 171 173 171 169 171 171 171 175 175 180 177 177 177 177 182 184 184 188 188 186 182 180 177 177 175 173 175 175 175 175 173 171 175 180 175 175 180 175 173 169 165 167 165 167 167 171 175 180 182 186 188 192 197 201 203 203 201 199 195 195 190 190 192 192 192 190 192 197 199 203 207 212 216 218 214 212 212 214 210 205 201 203 201 203 205 203 203 203 205 207 203 201 199 201 197 195 190 192 197 199 199 197 197 199 199 195 192 192 190 186 188 184 182 177 175 171 173 175 173 169 167 165 162 162 167 171 171 175 175 173 171 171 175 175 177 175 175 175 173 173 171 173 171 173 173 173 175 173 175 175 171 169 165 160 158 158 156 160 156 156 154 152 152 156 160 160 158 156 158 162 160 160 165 169 173 177 182 186 186 186 186 184 182 184 186 190 192 197 199 203 201 201 201 201 203 203 199 201 201 201 197 192 190 188 186 186 186 188 190 188 192 195 195 192 199 201 197 195 192 192 190 188 188 186 182 182 180 184 186 188 190 195 192 192 195 195 195 192 192 192 188 186 182 182 180 182 180 175 173 169
137 130 132 137 137 139 141 145 143 145 147 143 141 143 145 145 145 147 147 147 152 152 152 154 156 158 160 160 165 167 167 169 169 173 173 175 173 173 173 173 171 169 169 171 175 177 182 186 184 184 188 186 184 186 184 184 184 182 184 184 182 184 186 186 186 184 184 184 184 184 184 184 182 186 186 184 182 177 175 175 175 173 171 167 167 165 162 162 165 162 158 154 152 147 145 147 147 143 141 137 135 130 130 135 139 143 145 147 152 156 158 154 152 150 145 141 139 137 141 139 137 137 139 139 137 139 137 137 139 139 135 135 135 132 135 137 137 135 130 128 130 132 128 124 120 115 117 122 126 128 132 132 130 130 130 130 126 130 130 130 135 137 137 139 143 143 139 137 139 137 139 137 135 132 128 124 120 115 113 117 115 117 113 109 105 102 100 98 96 100 102 102 100 102 107 105 107 105 102 98 100 98 98 100 100 102 107 109 111 115 117 120 117 120 124 126 128 132 132 130 130 132 130 130 132 128 126 128 128 130 132 137 139 141 137 139 135 137 139 141 139 139 139 143 143 145 150 150 152 154 154 154 152 152 156 156 156 160 162 167 167 167 169 171 173 169 173 171 169 173 171 175 175 177 182 180 182 184 180 184 186 186 182 177 177 180 175 173 173 175 177 175 173 173 175 180 175 177 177 180 175 171 167 167 165 167 171 175 180 182 186 184 186 188 192 197 199 199 199 197 192 190 192 192 190 192 195 195 197 199 203 203 207 212 214 216 212 207 210 210 207 203 199 199 199 203 203 203 203 203 203 203 199 197 197 197 195 190 190 195 197 199 197 197 197 197 197 195 190 190 188 184 184 182 180 175 171 169 171 171 169 169 165 162 156 158 162 167 167 171 171 173 173 173 175 173 173 173 171 173 169 169 171 169 167 171 173 177 177 177 175 173 169 165 162 158 158 158 156 156 152 152 152 152 154 158 162 158 156 158 160 160 156 162 167 171 173 177 182 186 190 190 190 186 186 182 186 186 190 195 197 201 199 199 201 203 201 201 199 197 201 197 199 195 190 188 184 186 188 188 188 186 188 192 195 195 197 197 192 190 186 188 186 186 184 182 180 177 182 184 186 188 186 190 190 195 195 197 197 192 195 190 186 184 182 182 180 180 175 175 171 169
126 126 130 135 137 137 139 141 141 141 145 147 143 145 147 147 150 152 152 147 150 154 156 156 154 156 158 162 160 162 162 165 165 169 169 171 171 173 173 171 171 169 171 171 173 177 180 184 184 184 184 184 184 186 186 186 184 184 182 180 180 182 182 182 182 184 180 180 180 180 180 180 182 186 184 184 184 182 180 177 180 175 171 171 167 169 167 167 169 165 160 156 154 152 147 152 147 143 141 137 132 128 126 130 135 139 141 145 150 152 156 152 150 150 145 141 137 137 139 137 135 132 135 135 135 135 132 132 135 135 132 130 130 130 130 135 135 132 128 128 128 130 126 122 117 113 115 120 124 126 130 130 128 128 126 126 126 128 132 135 137 139 139 143 145 145 141 141 143 139 141 141 137 132 130 126 122 120 117 115 115 117 115 111 107 107 102 100 100 100 102 100 100 102 107 107 109 107 102 100 102 100 100 102 105 102 105 107 109 111 115 120 117 115 120 124 126 128 130 126 126 128 126 130 128 124 124 124 124 126 130 135 135 139 135 135 132 132 137 139 135 135 137 139 141 143 147 147 147 150 152 150 147 150 152 152 152 156 160 162 167 171 169 169 171 169 171 171 169 171 167 171 175 180 182 180 180 184 182 186 188 188 186 182 180 175 173 173 173 175 175 173 173 173 175 177 177 175 175 175 171 171 169 171 167 167 169 173 177 180 184 180 182 186 190 192 195 195 195 192 190 188 190 192 190 192 197 199 201 203 205 203 207 212 214 212 207 207 210 207 203 199 199 199 201 203 203 203 201 201 203 197 195 195 197 192 190 190 190 192 192 195 192 192 192 192 190 190 188 188 188 186 182 177 177 173 169 167 169 169 167 165 160 158 154 156 158 162 165 167 169 171 171 169 171 169 169 173 171 169 167 165 167 167 167 171 173 177 175 173 173 169 165 162 158 154 154 156 152 152 150 147 147 150 154 158 160 158 156 160 156 158 158 160 165 169 173 177 182 186 186 190 190 188 184 182 184 182 186 190 195 197 195 197 197 199 197 199 199 195 197 192 195 190 186 184 184 182 186 188 186 186 186 190 192 197 195 192 188 186 182 184 182 182 180 177 177 175 180 184 188 190 188 190 192 192 192 192 195 197 195 190 186 182 180 180 175 175 173 171 169 165
120 124 126 130 135 135 137 137 141 141 143 143 147 150 145 143 150 152 154 152 154 156 158 156 152 156 158 158 156 158 158 160 158 162 165 167 167 169 169 171 173 171 171 171 175 180 182 186 182 182 182 186 186 186 184 186 186 188 184 182 182 180 184 182 180 180 177 175 175 177 177 182 186 188 186 184 188 186 182 180 182 177 175 171 171 167 165 169 171 167 162 160 156 152 152 147 147 143 139 135 132 130 126 130 135 139 141 143 147 152 154 154 152 152 147 143 139 137 139 137 135 132 132 132 132 132 128 128 130 130 130 128 126 126 130 132 130 130 130 128 128 126 122 117 115 111 111 115 120 124 128 128 126 128 126 126 126 130 132 137 139 139 139 143 145 147 145 143 145 143 145 145 141 137 132 128 124 120 120 117 120 122 120 115 111 109 105 105 105 100 102 100 96 100 105 109 113 109 105 102 105 105 105 105 107 102 105 109 105 109 111 115 117 117 120 120 122 126 126 122 124 126 126 126 128 128 124 120 120 122 126 130 132 135 130 130 132 128 135 137 135 137 139 141 141 145 147 152 150 147 147 145 143 147 147 147 147 152 156 158 162 167 171 169 171 173 171 171 169 169 169 171 175 180 184 182 184 184 186 188 188 186 184 182 184 180 175 177 173 175 177 175 177 175 180 180 177 173 171 175 175 175 171 175 171 169 169 171 175 177 180 177 180 184 186 190 190 190 195 192 188 184 186 190 192 195 199 203 203 205 205 205 210 212 210 212 212 210 207 203 199 201 201 197 199 203 199 199 197 199 199 195 190 190 192 190 190 188 188 188 188 190 188 190 190 188 188 186 186 184 184 182 180 175 173 169 165 167 167 165 165 160 158 154 150 152 154 158 160 165 165 167 169 165 169 165 167 169 169 171 167 165 165 162 165 169 173 177 173 171 169 167 162 158 154 150 152 152 150 147 145 145 143 147 152 156 158 158 156 158 154 158 160 162 167 169 173 177 182 182 182 186 186 184 182 177 180 180 182 186 190 192 192 192 192 197 195 197 195 195 192 190 190 186 184 180 180 177 182 186 188 186 188 190 192 195 192 188 186 182 177 177 177 175 175 173 173 175 180 182 186 190 188 188 188 190 188 186 190 192 195 190 186 184 180 175 173 175 171 169 165 162
115 120 124 128 132 137 139 139 143 143 141 141 145 150 145 145 145 150 150 150 154 156 156 152 150 154 156 156 152 156 154 156 156 160 162 165 162 165 167 169 173 171 173 173 171 175 177 182 177 177 177 182 182 182 184 188 190 188 188 184 182 177 182 180 175 177 177 177 173 175 180 182 186 184 188 186 190 190 186 182 180 177 173 171 169 167 165 169 169 165 162 158 154 150 150 145 143 139 137 137 135 132 130 132 137 141 141 145 145 150 152 154 152 150 145 143 139 135 135 132 130 135 132 132 132 130 126 124 128 130 132 132 128 126 128 130 130 135 132 130 126 124 120 115 111 107 111 113 117 122 126 128 124 124 126 128 128 130 135 137 137 141 143 145 147 150 150 147 145 147 147 143 139 137 132 128 124 122 122 122 122 124 122 120 115 111 109 109 109 105 105 100 96 100 102 107 111 107 105 102 107 107 107 107 107 105 109 109 105 109 109 111 115 120 117 115 117 122 122 124 128 128 124 124 124 126 122 117 117 122 122 126 128 130 130 130 132 130 130 132 130 137 139 141 141 143 145 150 152 150 150 147 145 145 145 141 143 147 152 156 160 165 167 171 171 169 169 173 171 173 173 173 175 180 182 182 186 186 188 190 186 186 186 186 184 180 175 177 173 177 180 180 182 177 180 182 177 173 173 175 177 177 175 173 171 169 171 173 173 173 177 173 177 180 184 188 188 188 190 188 184 182 186 190 192 197 201 201 203 201 201 201 205 210 210 212 212 210 205 201 197 201 197 197 195 199 199 201 197 195 195 190 186 186 190 190 188 186 186 184 184 188 184 186 186 184 184 184 182 182 182 177 175 175 171 169 165 167 165 160 160 158 154 150 145 150 154 156 160 162 165 167 165 165 165 162 162 167 165 169 169 169 169 165 169 171 171 173 169 167 169 162 160 156 152 150 152 150 150 150 150 147 145 147 150 152 156 154 158 154 154 158 160 162 167 171 175 180 182 182 180 182 182 182 180 175 177 173 177 182 186 188 188 188 190 192 190 192 190 190 188 188 186 186 184 180 175 173 177 182 186 186 188 186 188 190 190 186 182 177 175 175 173 173 173 175 171 171 175 180 182 186 184 184 184 186 184 184 186 188 188 186 182 182 177 175 171 173 169 165 162 158
113 117 122 126 128 132 137 139 139 141 143 139 143 145 145 145 145 150 152 150 150 154 152 150 147 150 154 154 150 152 152 152 152 156 158 160 160 160 162 167 169 171 169 171 169 171 175 177 175 173 177 177 177 177 180 184 188 186 186 182 180 177 180 175 171 173 177 175 173 175 180 184 186 186 190 188 192 190 188 184 180 175 173 173 169 165 162 165 165 162 160 156 154 152 150 147 145 141 137 135 132 130 132 135 139 141 143 147 145 147 152 150 150 150 145 143 139 135 132 130 128 132 137 132 130 126 124 120 124 126 128 132 130 130 130 130 130 135 135 130 126 120 117 113 107 107 111 113 115 120 124 124 120 122 126 126 128 132 137 137 137 141 143 147 147 147 152 147 147 147 150 145 141 135 132 128 124 124 126 126 122 126 126 122 120 115 113 113 111 109 107 105 100 102 102 105 107 107 105 102 105 107 111 111 111 109 109 105 105 105 107 111 113 115 113 111 113 117 122 126 130 128 124 122 120 124 124 122 117 122 124 124 126 128 132 132 135 132 132 135 132 135 139 141 145 147 143 145 147 150 154 152 147 143 141 139 141 145 150 154 156 160 165 167 169 171 171 171 175 177 177 175 177 182 184 186 186 188 192 192 190 190 190 188 184 182 177 175 175 173 177 182 180 180 182 177 175 173 175 177 175 177 175 171 169 165 169 173 177 175 173 173 173 175 180 184 184 184 186 184 182 184 186 190 195 199 203 203 203 203 203 203 207 207 207 207 207 205 201 197 197 199 197 197 192 197 199 197 195 195 190 186 182 182 186 186 184 182 182 182 182 184 180 182 182 180 180 180 177 177 180 177 173 173 171 167 165 162 160 156 156 154 150 145 145 150 154 158 162 165 162 162 162 165 165 162 162 167 165 169 169 173 171 169 167 167 165 169 167 162 165 162 160 156 152 150 150 150 150 152 152 147 147 150 150 152 154 152 154 152 150 156 160 162 167 171 175 177 182 180 180 182 182 177 175 175 175 171 173 177 182 186 184 184 186 188 186 188 188 188 186 186 186 186 182 180 177 173 175 177 182 184 186 184 188 186 186 184 180 175 171 171 171 169 169 171 169 169 171 175 177 182 180 180 180 184 180 180 184 186 184 182 177 180 175 171 169 169 165 162 160 156
111 115 120 124 128 132 135 139 137 137 139 139 141 143 143 141 145 145 147 145 147 150 150 145 145 145 150 152 150 150 150 150 147 152 154 156 156 158 160 165 169 169 165 169 167 167 171 173 171 169 173 177 175 173 177 180 184 186 186 182 180 177 175 171 171 173 175 177 175 175 180 182 184 186 188 192 195 188 186 182 177 173 171 171 169 165 162 162 160 160 160 158 154 152 152 147 143 139 135 135 130 130 128 135 137 141 145 147 145 143 147 147 145 145 141 139 135 130 130 128 128 130 132 130 126 124 122 120 120 122 126 130 128 132 135 130 130 132 132 126 122 120 115 111 109 109 113 117 117 122 124 122 122 126 130 130 130 132 137 137 139 139 143 143 147 150 150 145 147 147 145 143 139 135 130 126 124 122 124 122 122 126 128 126 122 120 117 115 113 113 111 111 107 107 109 109 109 107 102 98 100 105 109 111 111 113 109 109 107 109 109 109 109 111 111 111 113 115 120 124 128 128 124 122 122 124 126 126 122 124 126 128 130 130 130 130 132 135 132 132 135 139 141 145 145 145 141 145 145 147 152 150 145 141 139 135 139 143 147 152 154 158 162 167 169 173 175 175 177 180 180 175 175 180 184 188 190 192 197 195 190 192 192 190 186 182 177 177 175 175 180 182 184 184 184 182 177 175 175 177 175 177 175 171 167 165 167 171 173 177 175 173 173 175 177 180 182 182 182 180 180 184 188 192 195 199 203 205 205 207 205 205 203 203 205 203 205 201 197 195 197 201 197 195 192 192 195 195 192 192 188 186 182 180 182 184 182 182 182 180 180 180 175 177 177 177 175 175 175 173 175 173 169 171 169 165 165 165 160 156 156 156 152 147 147 150 154 154 158 162 158 158 158 160 162 165 167 169 167 171 169 173 171 169 167 165 162 167 162 160 160 165 160 158 154 152 152 154 150 152 152 147 147 150 147 147 152 152 152 152 154 158 162 165 169 173 177 182 182 180 180 180 180 182 177 175 171 171 173 177 182 184 184 184 182 184 182 184 184 184 182 182 182 182 180 182 180 175 173 175 177 180 184 182 186 184 184 182 177 173 169 167 167 165 165 167 169 165 169 171 175 177 175 175 175 180 175 175 180 180 180 177 177 177 173 171 167 165 160 158 156 152
