80 80 80 82 87 82 80 85 85 82 82 78 80 80 80 80 80 80 82 82 87 85 85 87 85 82 82 78 78 74 72 70 70 70 70 70 72 70 70 70 68 70 66 66 66 68 68 64 64 64 62 58 58 62 60 58 60 64 64 62 60 60 60 60 58 58 62 64 68 72 74 72 74 78 76 72 74 76 76 74 78 78 80 85 89 93 93 89 91 89 91 91 95 91 91 93 95 99 97 101 101 99 97 95 95 93 91 93 95 93 91 87 87 91 93 91 91 89 89 89 87 87 82 78 74 72 68 64 68 72 76 78 82 87 87 87 87 91 95 95 99 97 97 99 103 105 109 111 111 113 117 121 117 117 121 119 115 115 113 113 115 119 117 121 119 123 125 127 131 131 131 131 135 133 129 127 127 125 123 123 119 117 113 109 109 111 113 113 109 105 103 101 107 111 113 113 113 115 117 119 119 123 127 125 125 125 123 119 121 123 125 125 129 127 125 123 123 123 127 127 125 129 127 123 123 125 127 125 125 125 129 129 131 135 133 133 133 131 131 129 131 127 123 119 119 117 115 113 111 111 111 107 103 99 97 93 95 95 97 93 93 93 89 87 87 85 89 85 80 80 80 80 80 82 85 89 91 91 91 93 97 95 95 95 97 93 91 89 93 95 95 97 99 99 101 101 105 107 107 103 101 103 105 105 107 105 107 109 113 117 115 113 113 117 119 119 117 117 113 115 117 119 119 121 121 125 123 119 123 125 127 129 131 129 127 125 121 127 131 135 137 141 145 147 149 151 147 147 149 149 149 153 157 161 165 167 172 174 172 172 174 178 180 182 182 186 186 190 190 192 192 194 198 196 196 192 192 194 192 194 190 188 186 184 182 184 184 184 184 182 178 174 174 174 174 172 172 172 172 172 172 172 172 172 172 172 174 170 167 167 167 163 159 157 155 155 159 163 159 159 157 153 151 151 151 147 149 151 151 151 147 143 143 147 149 151 151 149 145 141 139 137 133 137 137 135 133 131 131 133 137 137 141 143 139 141 141 143 139 135 131 127 125 121 121 121 121 123 123 119 117 117 117 115 113 109 109 111 109 107 107 105 103 105 107 109 111 109 113 109 105 105 105 105 103 101 101 103 99 95 91 87 82 78 76 72 68 68 68 70 74 76 80 85 89 89 93 91 95 95 99 103 105 107 111 115 111 115 117 119 119 121 119 123 125 125 127 129 127 125 129 131 131 131 135 139 139 137 141 141 141 139 139 137 139 141 143 145 143 143 145 149 149 149 147 147 143 141 139 137 137 135 139 139 139 137 137 139 143 139 137 135 135 135 135 137 139 137 135 131 129 127 129 131 131 129 129 131 129 127 125 127 123 119 115 113 109 105 109 111 109 105 105 105 109 111 113 109 109 109 109 105 101 99 101 105 107 105 105 107 109 109 111 113 117 119 123 121 117 117 121 123 123 121 125 129 133 129 133 133 129 133 137 137 133 133 135 139 141 141 143 147 149 153 153 151 149 145 145 145 145 143 141 141 145 149 153 155 153 155 159 163 165 163 167 167 165 161 165 167 170 174 174 172 170 170 170 174 174 172 172 170 174 172 174 178 178 178 178 182 178 176 174 174 174 174 176 176 174 172 170 170 170 167 167 165 165 163 163 161 161 157 161 159 157 157 157 153 153 151 149 145 143 139 139 139 137 135 133 129 127 123 119 119 123 123 123 119 115 113 109 107 107 105
82 85 82 85 87 82 82 87 87 85 82 80 85 85 85 85 85 85 85 87 87 89 87 89 87 82 82 80 80 78 76 72 74 74 72 72 72 70 72 68 68 70 68 68 70 70 68 66 66 66 64 62 62 60 60 60 60 60 64 62 62 64 64 64 62 62 64 68 72 72 70 76 74 76 78 74 76 76 78 74 76 76 78 82 87 89 91 89 91 91 93 93 95 93 93 93 97 99 99 99 101 97 95 93 91 91 91 93 95 93 93 91 91 95 95 93 93 91 91 89 87 87 82 78 74 70 68 64 66 70 74 78 82 87 89 89 91 91 91 93 95 99 101 99 103 105 109 113 113 117 119 121 119 117 119 117 115 115 117 117 119 121 119 123 121 121 125 127 131 133 129 131 133 131 129 125 123 121 123 119 119 115 113 111 107 111 111 109 109 107 105 103 105 109 111 113 115 117 117 119 121 121 125 125 127 125 123 121 117 123 125 125 127 129 127 125 123 123 125 125 121 125 125 123 123 123 127 125 129 127 127 131 133 133 133 135 133 133 133 131 131 129 125 121 123 119 117 117 113 111 115 111 107 103 99 95 95 99 95 93 93 93 89 87 87 87 87 82 82 85 85 80 85 82 85 89 89 93 93 95 95 97 93 93 93 93 93 91 95 95 97 101 101 101 103 101 103 107 107 107 105 105 107 107 111 109 107 109 113 117 117 115 117 119 121 117 117 115 117 117 117 119 123 121 123 123 121 121 121 125 123 129 131 127 127 125 123 125 129 133 137 141 143 145 147 147 149 149 151 151 151 155 159 163 165 167 170 172 172 174 178 180 182 184 186 188 190 194 192 192 192 194 194 194 194 192 194 196 194 196 192 190 190 186 186 184 186 188 188 184 182 178 178 176 178 176 174 172 176 176 176 174 176 174 174 176 174 172 170 167 170 167 163 159 157 155 159 163 161 161 159 155 153 155 153 151 153 155 155 153 151 147 145 149 151 151 149 149 145 141 139 135 131 133 135 131 133 131 131 135 137 137 141 141 141 141 141 143 139 137 133 129 125 121 125 123 123 125 125 123 119 117 119 119 115 111 113 109 109 109 107 107 107 107 109 111 111 111 113 111 107 109 107 107 105 101 101 101 97 95 93 89 85 80 76 72 68 64 66 70 74 76 80 85 85 87 91 89 91 95 99 103 107 111 113 115 113 117 117 121 121 125 123 125 127 127 127 129 127 127 131 131 131 133 137 141 137 137 139 139 139 137 137 137 137 139 141 145 145 143 147 149 151 151 149 147 145 141 141 141 141 139 141 141 143 141 139 141 143 141 139 139 137 139 137 139 137 137 133 131 129 129 129 133 131 129 129 127 125 129 127 125 121 117 113 109 107 107 107 109 107 105 109 109 113 111 111 109 107 107 109 105 101 99 103 103 107 103 103 105 109 109 113 111 115 119 121 119 119 119 121 125 125 123 125 127 131 131 133 131 131 135 137 139 135 135 139 143 143 145 145 149 151 155 155 153 149 147 145 147 147 145 145 143 147 151 155 157 153 155 159 161 165 167 170 170 170 165 163 167 170 172 172 170 170 172 170 174 176 172 167 165 170 172 172 174 176 180 180 182 180 180 176 174 174 174 176 176 172 172 172 174 172 167 165 163 163 163 163 159 159 159 163 161 159 159 159 155 153 151 151 147 145 143 143 141 137 135 131 131 127 123 121 121 121 125 123 121 117 113 111 107 109 107
87 85 85 87 91 87 87 89 91 87 85 85 87 89 89 89 89 87 89 91 91 91 89 93 89 87 85 80 80 82 80 76 76 78 76 72 72 72 70 68 72 68 70 70 74 72 72 68 70 68 68 64 64 60 62 60 60 64 66 66 66 66 68 68 66 66 66 70 72 72 72 74 74 74 78 76 78 80 76 74 74 78 80 82 87 89 93 91 93 93 95 97 95 95 95 95 97 101 101 97 97 93 93 91 91 93 93 89 93 91 91 91 95 95 97 95 93 91 95 93 89 89 85 80 76 72 70 68 68 72 76 80 85 87 91 93 93 93 95 95 97 99 103 101 105 107 111 113 117 119 121 121 121 119 119 117 117 119 121 119 117 117 121 123 123 121 125 125 127 131 129 129 131 129 127 123 123 121 119 117 115 113 113 109 107 109 109 113 109 105 103 103 105 109 111 115 117 117 121 121 123 123 125 125 125 127 123 119 119 123 125 127 129 131 129 127 125 125 125 125 123 123 125 125 127 125 127 129 129 131 131 129 131 131 131 131 133 135 137 133 129 127 123 119 119 119 119 117 117 115 115 115 111 107 103 99 97 99 97 97 97 95 93 89 87 87 87 85 85 87 85 82 85 82 85 87 91 91 91 91 95 95 93 91 89 91 93 95 97 97 101 103 105 101 103 101 103 107 109 109 107 109 109 109 113 109 109 111 115 115 113 113 115 117 117 113 115 115 117 113 115 119 123 123 123 121 121 121 125 127 125 125 127 125 129 125 125 129 133 137 141 143 145 145 145 147 147 151 153 149 149 153 157 161 163 165 167 172 174 174 176 180 182 186 184 186 190 190 190 192 192 194 196 196 196 194 198 196 196 194 194 192 194 190 190 186 190 188 190 188 184 182 180 180 182 180 176 176 180 180 176 176 178 174 178 178 176 176 174 170 172 170 165 163 161 159 161 163 161 161 157 155 155 157 157 155 157 157 157 153 153 149 149 149 149 149 149 147 145 141 137 133 131 131 131 131 133 133 135 137 139 139 139 137 143 143 143 141 139 137 133 131 127 125 127 125 125 129 129 125 123 119 121 119 117 113 113 111 109 107 107 109 109 109 113 115 115 113 113 111 107 109 109 107 103 103 103 99 95 95 91 87 82 80 76 72 68 64 66 70 72 76 80 85 87 91 89 89 93 97 101 103 107 111 113 113 115 117 117 121 121 121 121 125 125 127 129 125 129 131 133 135 135 137 137 139 141 139 141 141 141 137 137 137 139 139 141 143 143 147 149 149 151 147 147 147 145 141 143 143 145 143 145 145 145 145 143 141 143 139 143 139 137 137 135 137 139 141 137 135 133 131 127 131 133 131 131 129 127 127 127 123 121 119 115 113 109 107 109 111 111 109 111 113 115 113 113 109 107 105 105 103 99 99 101 105 107 103 105 109 111 111 111 111 115 119 119 121 121 123 123 123 125 123 127 129 133 131 133 133 133 131 135 135 139 139 141 145 145 147 149 145 149 153 155 151 149 149 145 147 147 149 147 147 151 153 155 155 157 157 161 165 170 172 170 170 165 163 161 165 170 167 170 172 170 170 170 172 176 172 170 165 170 174 174 174 178 180 182 178 180 180 176 174 176 174 174 174 172 174 176 172 172 172 167 167 167 165 161 161 163 163 165 165 161 163 163 159 157 153 151 149 147 145 145 141 137 133 131 129 125 123 121 121 123 121 123 119 117 113 109 105 105 103
87 87 87 87 89 89 89 93 91 87 87 87 91 91 93 91 91 89 89 93 95 95 93 95 91 89 89 85 85 85 85 80 80 80 76 74 76 76 72 70 68 64 68 72 74 74 72 68 66 70 72 68 68 64 64 64 64 68 68 68 70 70 70 70 68 70 70 72 74 76 74 76 78 76 78 78 82 82 80 78 76 76 78 78 82 87 91 95 97 97 97 97 97 97 97 95 99 101 99 97 99 95 93 91 93 95 93 91 93 93 93 93 93 95 95 93 95 93 95 95 91 89 85 80 76 74 70 70 72 74 78 80 85 89 93 95 97 95 95 95 95 99 101 101 101 103 107 109 113 117 119 121 119 117 117 115 119 121 117 115 115 115 117 121 123 123 125 123 125 129 129 127 127 127 125 123 123 121 119 117 115 115 113 111 111 111 111 113 111 109 107 105 107 111 115 119 119 119 119 123 123 123 123 123 123 125 123 121 123 125 129 131 131 133 133 129 125 127 125 127 125 127 125 129 129 127 125 125 125 127 127 129 127 127 127 127 129 133 135 131 129 127 125 121 119 119 119 117 119 119 117 115 113 109 107 103 101 101 101 101 101 99 95 93 91 91 91 89 89 91 89 85 82 82 87 87 87 89 89 89 91 95 95 95 93 93 95 97 101 101 103 105 101 101 105 105 105 107 107 111 111 113 113 113 113 113 113 115 119 119 117 115 117 121 117 113 115 115 117 115 117 119 119 121 123 123 121 123 127 127 127 123 123 123 127 127 129 131 135 135 137 141 143 147 147 149 147 151 151 151 151 155 157 161 165 167 170 172 174 176 178 182 182 186 184 186 186 186 188 190 192 194 198 194 196 196 200 196 196 194 192 190 192 194 190 190 192 192 190 188 186 184 184 184 184 180 178 178 176 178 180 176 176 174 178 178 178 178 174 172 174 170 167 165 163 161 165 167 163 165 161 157 159 157 159 159 157 157 157 155 157 153 151 149 149 149 149 149 145 141 139 135 133 129 131 131 135 135 137 141 143 143 139 139 141 145 143 141 139 135 131 129 127 125 125 127 127 125 125 127 125 123 125 121 119 117 115 115 111 109 111 111 113 113 117 117 113 111 113 115 111 109 107 105 105 107 103 101 99 99 95 89 85 80 78 74 70 68 66 70 74 76 80 85 87 89 89 91 95 97 99 103 107 109 111 115 117 115 115 117 117 119 119 123 123 125 127 127 131 135 135 139 137 139 137 139 139 139 143 143 141 137 137 137 141 139 141 141 145 145 147 149 149 145 147 147 149 145 141 141 143 145 147 149 147 147 147 143 143 139 141 137 139 137 135 137 141 141 139 137 133 131 127 129 133 133 129 129 127 125 125 123 119 117 113 115 113 111 113 113 115 111 115 113 115 113 113 109 107 103 103 99 99 99 101 103 103 105 109 111 115 113 113 115 117 119 115 119 121 123 123 125 123 125 127 129 131 135 137 135 135 133 137 137 139 139 143 141 147 149 147 145 149 151 155 151 149 149 147 151 149 149 151 151 153 155 155 157 159 161 165 167 170 170 170 172 167 163 161 163 167 165 167 172 167 170 172 172 174 172 170 170 174 174 178 176 178 178 178 178 182 178 176 176 174 172 174 174 174 176 172 170 170 170 172 170 170 167 163 165 165 167 170 167 165 165 161 159 157 155 153 149 149 147 143 139 135 131 127 125 123 121 119 121 121 117 121 117 113 111 107 103 101 99
89 87 89 87 91 89 91 91 93 89 89 91 91 95 97 93 91 89 91 91 95 99 97 95 93 89 89 89 89 89 89 85 85 82 80 76 76 72 70 68 66 66 68 68 70 72 70 68 66 70 74 70 72 68 68 66 66 70 72 68 72 70 72 72 72 72 74 74 78 76 78 76 76 76 80 80 80 80 85 80 80 76 80 80 85 87 91 95 97 95 97 95 95 95 97 99 99 101 101 99 97 97 93 91 93 95 93 91 91 93 93 91 91 93 93 89 93 93 93 93 91 87 85 80 76 74 72 76 78 78 80 85 87 91 95 97 99 99 97 97 95 99 97 97 97 101 103 107 111 115 117 117 115 117 117 115 117 117 115 113 111 111 115 117 121 121 121 121 125 127 125 123 123 123 127 127 123 125 121 119 117 117 115 113 113 115 113 113 113 113 109 109 109 113 117 115 115 117 117 121 123 121 119 119 123 123 123 123 125 129 129 131 131 133 129 125 123 123 123 127 125 125 123 125 127 129 125 123 123 123 125 127 127 129 125 125 127 129 131 133 129 129 125 123 123 121 121 119 121 121 117 117 117 113 111 107 103 103 103 105 105 103 99 97 95 93 95 93 93 93 89 89 85 82 82 85 85 87 91 89 93 95 97 97 97 93 95 97 101 103 105 103 103 105 109 107 105 109 109 109 113 117 115 113 115 117 117 117 121 119 115 113 115 117 117 115 111 115 115 117 119 117 117 117 119 123 123 125 127 127 125 123 125 125 129 131 131 135 131 133 137 141 143 147 147 147 147 149 149 149 151 153 157 159 163 165 167 170 174 178 180 180 180 182 184 182 182 184 184 188 190 192 196 194 194 194 198 200 198 196 192 190 190 192 190 192 190 188 190 188 186 186 188 186 184 180 180 176 176 176 178 178 178 178 180 180 178 176 176 174 172 170 172 170 167 165 167 165 165 165 161 159 161 159 157 157 155 155 159 155 159 157 155 153 151 149 147 147 143 141 137 133 131 129 133 133 137 137 139 139 143 143 143 143 143 147 143 141 139 137 133 129 125 121 121 123 123 123 127 129 129 127 127 125 121 117 119 115 111 109 113 115 117 117 119 117 113 111 113 111 109 107 107 107 107 107 105 103 103 101 95 91 87 85 80 76 72 68 70 72 76 78 80 80 85 87 89 93 93 97 101 105 109 109 111 111 113 113 113 113 115 117 119 121 119 123 127 127 131 133 133 137 137 137 139 141 141 141 141 145 141 139 137 139 139 139 139 139 143 141 143 145 145 143 145 145 145 141 139 139 139 141 145 147 147 147 149 145 141 139 139 137 137 135 137 135 137 139 135 133 131 127 127 129 133 131 129 127 125 125 125 123 119 117 113 115 117 115 117 117 119 115 115 113 111 111 111 107 103 103 101 101 103 101 105 105 107 109 113 115 119 117 113 117 117 117 117 117 117 121 125 125 123 123 125 129 131 129 135 137 137 135 139 139 141 143 145 143 143 145 147 147 147 149 151 149 151 147 147 149 149 149 153 155 157 157 155 159 161 165 167 170 165 165 170 170 165 165 165 165 165 165 165 170 165 167 167 170 172 170 172 172 176 176 178 176 180 176 176 174 178 178 180 178 174 172 174 176 176 174 170 170 172 172 172 170 167 165 163 163 167 167 167 167 165 165 161 159 157 153 153 149 149 145 141 137 133 129 125 121 119 117 117 119 117 117 121 117 113 109 105 103 99 97
87 85 89 89 87 91 91 93 91 89 91 93 95 97 97 95 95 93 95 93 97 99 97 95 93 93 93 91 91 89 89 87 89 87 85 80 78 74 70 68 68 66 70 70 70 70 68 66 68 72 74 74 74 70 70 68 68 70 70 72 72 72 72 72 70 70 74 76 76 76 78 80 76 76 80 82 80 78 80 82 78 76 78 82 87 91 93 97 97 93 93 93 95 97 99 103 101 105 105 103 101 97 93 93 97 97 97 95 93 97 93 91 93 91 91 91 91 89 95 93 95 91 87 82 80 78 76 80 82 85 85 87 91 95 97 97 101 99 97 95 95 99 99 95 95 99 101 105 107 111 113 115 115 113 113 111 113 113 113 113 111 111 113 115 119 123 125 123 125 123 123 121 119 123 127 129 127 127 123 121 121 121 117 117 115 115 115 115 115 113 111 111 113 117 117 117 119 119 117 117 121 121 117 119 121 119 121 125 129 133 131 131 129 129 127 123 119 125 125 125 125 125 123 127 127 131 127 123 123 123 127 127 127 129 129 127 127 129 133 131 131 131 127 125 125 123 123 123 125 121 121 117 113 109 109 111 107 107 107 107 109 107 103 101 97 97 97 97 93 95 91 91 87 85 85 89 85 85 87 91 91 93 95 99 95 93 93 97 101 101 101 103 105 107 109 111 109 109 109 111 113 117 119 115 117 121 117 121 119 115 113 113 113 115 117 115 113 117 117 117 121 119 117 121 121 121 125 127 127 127 127 127 129 127 131 133 133 137 135 137 137 137 141 143 143 145 145 147 145 149 153 155 159 163 165 167 167 172 174 176 178 180 184 186 182 182 178 182 184 186 190 194 196 196 194 196 200 198 200 196 196 194 194 194 190 190 188 186 186 186 186 186 188 186 184 182 180 178 178 178 178 180 180 180 180 184 180 178 174 174 172 172 172 172 170 167 170 167 167 167 165 163 165 163 161 161 157 155 157 157 161 159 159 157 153 149 145 145 141 139 137 133 131 133 137 137 141 141 137 137 141 145 145 145 145 147 145 141 139 135 133 129 125 121 123 125 123 127 123 127 131 129 127 125 121 119 121 119 115 111 115 115 119 119 117 117 117 113 113 113 113 109 109 109 111 109 107 105 105 101 97 93 89 85 80 78 74 72 74 76 80 80 80 85 87 89 91 95 93 95 97 101 105 107 109 107 111 109 111 109 111 113 117 121 121 123 125 127 131 131 131 133 135 139 141 143 139 141 141 143 141 137 139 139 143 139 141 141 139 139 139 143 141 143 143 143 143 141 143 141 143 143 147 149 147 147 145 145 145 143 139 137 135 133 135 131 133 135 135 133 131 129 125 125 129 131 129 127 127 127 125 123 121 117 115 115 119 115 117 119 121 119 115 111 109 109 107 105 105 107 103 105 103 105 107 107 111 109 113 115 117 115 115 119 117 117 117 117 121 123 127 125 127 127 129 131 131 131 133 137 139 139 141 143 145 147 145 147 147 149 151 151 151 149 149 147 151 151 149 151 153 151 153 151 157 159 159 161 163 165 170 170 165 170 170 167 165 165 167 167 167 167 165 167 165 163 165 167 170 165 170 172 174 176 178 178 176 174 174 172 176 178 180 180 176 174 176 176 174 170 170 170 172 170 172 172 167 167 165 165 165 170 170 167 170 167 163 161 157 155 153 149 147 143 139 137 133 129 125 123 117 121 119 121 121 119 117 115 113 109 107 103 101 99
87 85 85 87 87 87 91 91 93 91 93 95 97 99 99 97 95 93 95 95 95 97 97 95 97 97 95 95 95 91 89 89 91 89 87 82 78 76 72 70 70 70 70 70 72 70 70 66 68 70 74 72 72 72 72 70 70 72 72 74 72 72 76 72 72 74 78 76 74 76 78 80 78 78 80 82 82 78 76 80 78 78 80 85 87 89 93 95 99 97 95 97 97 97 101 99 103 105 107 105 101 97 97 97 99 101 101 99 97 95 93 91 93 93 95 95 91 91 93 95 95 91 89 85 85 82 82 85 87 87 89 89 91 95 99 99 99 97 95 95 97 97 97 95 99 99 103 105 103 107 109 111 111 111 109 111 109 111 113 109 113 113 115 117 119 121 123 125 123 119 123 121 121 125 125 127 129 127 123 121 123 123 119 119 117 115 115 115 117 117 115 113 115 117 117 119 121 121 117 119 121 121 117 117 121 121 123 125 129 129 133 133 133 129 125 123 121 123 125 125 129 127 125 123 123 127 125 123 127 127 127 129 127 131 129 125 125 127 131 133 133 131 131 127 127 125 127 123 123 121 117 117 115 113 111 111 109 107 111 111 111 109 107 105 101 101 101 99 97 95 95 93 91 87 89 89 89 87 89 89 91 93 93 95 97 93 97 93 97 99 103 103 107 105 109 107 111 111 111 111 115 117 117 117 119 119 119 119 117 115 113 113 113 115 117 117 115 115 117 117 119 119 121 123 123 125 125 125 123 125 129 129 131 129 129 133 137 135 133 133 133 135 137 141 141 143 143 143 141 147 151 155 157 161 165 167 172 174 174 176 178 180 182 184 182 182 178 182 186 186 188 192 196 198 196 194 198 198 196 200 198 196 196 194 192 190 186 186 186 186 186 188 188 184 184 186 184 182 178 174 174 178 182 182 182 180 180 178 176 174 174 174 176 174 174 172 172 172 172 172 170 165 170 167 163 161 161 157 157 159 161 163 159 157 153 149 145 143 145 141 137 135 135 135 139 139 139 137 137 139 143 147 145 147 149 145 141 139 139 137 133 131 127 123 123 127 123 127 125 127 131 127 129 125 123 121 121 119 117 115 117 117 117 117 119 119 117 115 117 117 117 113 113 113 113 111 109 105 101 101 97 95 91 87 82 80 76 76 78 80 82 85 85 85 87 89 91 93 95 95 97 101 101 103 105 105 107 107 109 107 107 109 113 117 121 125 123 127 129 127 127 129 133 135 139 139 139 139 139 141 139 137 141 141 145 141 141 139 139 137 139 139 141 141 143 141 143 139 139 143 147 147 149 149 147 143 149 145 143 139 139 137 135 131 131 129 133 133 131 131 129 125 125 129 131 129 127 127 129 129 125 125 121 121 117 117 119 117 113 117 117 117 115 111 109 107 105 105 109 111 107 107 105 109 107 107 109 113 117 115 119 117 117 119 119 119 119 121 123 127 129 127 131 129 129 129 129 131 133 137 137 141 145 147 149 149 149 149 149 151 155 153 149 149 149 147 151 151 151 153 157 153 155 153 157 159 161 163 165 170 172 170 170 172 174 170 167 167 165 167 170 167 165 165 165 163 167 172 170 167 172 176 178 178 178 176 174 172 170 170 174 176 178 176 178 174 178 176 176 174 170 170 167 167 170 170 170 170 165 165 167 170 167 165 167 170 167 163 161 157 153 149 145 143 139 135 131 127 123 121 119 123 121 119 119 117 117 113 109 105 103 99 99 97
91 89 87 87 87 91 89 87 91 93 95 99 97 101 97 95 93 91 91 91 93 97 93 93 93 97 95 97 95 91 87 91 93 91 89 85 80 78 74 70 70 72 70 70 74 70 68 68 72 72 74 74 74 76 74 72 68 68 72 76 74 76 76 76 76 76 78 74 74 76 76 76 80 80 80 85 82 78 76 78 80 82 82 85 87 89 89 93 95 97 95 95 99 99 97 97 101 101 103 105 103 101 97 97 99 103 103 103 99 97 97 93 95 93 95 91 91 91 91 93 91 87 87 85 87 85 85 89 93 91 93 91 93 95 97 101 99 99 97 99 97 97 97 95 99 101 101 101 101 103 107 107 109 107 107 109 111 113 111 111 113 115 117 119 119 121 121 121 121 121 123 125 125 127 123 123 127 127 123 123 123 123 123 121 119 117 117 119 121 119 119 115 119 119 119 121 121 123 119 119 121 123 121 119 123 119 123 127 127 129 131 129 129 125 125 123 125 127 127 129 127 129 125 123 123 125 123 127 129 131 127 125 125 127 125 123 125 127 129 133 135 135 131 129 129 127 125 123 123 123 121 119 117 115 115 113 113 109 109 107 113 113 111 107 105 105 101 99 99 95 99 97 93 91 91 93 93 91 89 91 93 97 97 99 99 97 93 93 95 99 103 103 107 105 109 107 111 115 113 113 115 117 119 121 121 121 123 121 117 119 115 113 117 119 119 121 117 119 119 121 121 119 123 121 119 123 125 125 125 127 127 127 129 133 133 135 133 131 135 131 133 133 135 137 137 141 143 143 145 149 153 157 161 163 167 170 172 172 172 172 176 178 180 180 182 182 180 180 184 186 190 192 194 198 196 194 196 200 196 198 200 200 198 194 192 190 186 188 186 186 188 186 188 188 188 190 186 184 182 178 178 178 180 182 184 184 180 176 176 174 172 170 172 176 178 176 174 174 176 172 174 170 172 167 167 165 161 157 157 161 159 163 159 155 151 147 143 141 143 141 137 137 137 135 139 141 141 139 139 141 143 147 147 149 145 143 139 137 139 135 135 131 127 125 121 125 125 127 129 129 129 125 127 125 125 121 123 119 119 117 113 117 115 113 119 117 117 115 119 119 119 117 117 117 115 111 109 105 101 97 95 93 89 85 82 80 80 80 82 85 82 82 82 80 85 89 91 95 95 95 95 97 97 101 105 107 105 105 105 103 105 107 111 115 119 121 121 125 127 125 125 125 129 133 135 137 139 139 141 143 139 139 141 143 143 143 141 139 137 137 137 139 141 145 141 137 139 139 139 141 143 147 147 147 145 145 145 147 145 141 141 139 135 131 129 129 129 129 131 133 129 125 129 133 135 133 131 129 133 131 129 127 125 123 119 119 117 113 113 117 119 119 115 113 109 107 107 107 107 109 111 109 109 109 109 111 111 113 115 115 119 121 119 121 123 121 121 123 125 127 129 129 133 131 131 133 133 133 137 141 141 143 147 149 149 153 153 151 151 151 151 153 149 151 153 151 153 153 153 157 155 153 155 155 159 159 159 163 165 167 170 170 172 174 174 172 167 167 165 170 174 172 170 170 165 165 170 172 172 170 174 176 174 178 178 178 174 172 172 174 172 174 174 174 176 178 176 174 172 174 174 170 165 165 167 167 167 165 163 161 165 167 167 165 165 165 167 165 161 157 153 149 147 143 139 135 131 127 123 121 119 121 117 117 115 113 113 109 107 103 99 97 97 93
91 89 91 91 91 91 87 87 91 93 97 97 97 97 95 95 91 91 93 91 91 93 91 91 89 93 95 95 93 91 87 89 91 89 87 82 80 80 76 72 70 72 70 72 76 72 70 70 72 74 76 78 76 74 72 70 68 70 74 76 74 78 78 76 80 78 78 74 76 78 78 78 82 82 82 82 82 80 80 80 80 85 85 87 89 93 91 91 93 95 99 97 101 99 97 99 97 97 99 101 103 101 99 99 103 105 107 105 103 99 97 97 99 95 97 95 95 93 93 91 89 89 89 89 87 89 89 93 97 95 93 93 95 99 99 99 101 99 101 103 99 97 95 95 99 99 99 99 99 99 103 105 107 109 109 107 111 111 111 111 115 117 117 117 117 121 125 123 125 125 125 123 123 123 123 123 125 127 125 123 121 121 121 119 119 117 115 115 119 119 121 119 123 121 121 121 121 119 117 117 121 119 119 119 121 119 123 125 127 129 127 125 127 125 123 121 125 125 123 127 125 125 125 123 121 121 123 125 127 129 125 121 121 125 123 123 127 127 129 131 133 131 131 129 127 127 127 123 125 123 121 121 121 119 115 113 113 109 109 109 109 113 109 107 105 105 101 97 97 97 99 97 95 93 93 93 93 91 91 91 95 99 101 101 101 97 97 95 99 101 105 105 109 107 107 109 109 113 115 117 115 119 121 121 121 125 123 121 119 115 115 117 119 119 119 119 121 123 123 123 123 123 125 121 119 121 123 123 127 125 123 125 129 129 131 135 133 133 133 131 131 131 131 133 137 139 139 141 145 149 155 157 161 165 170 170 170 174 172 174 178 176 176 178 180 180 176 178 180 184 188 190 192 196 192 194 194 196 200 196 196 196 194 192 190 188 188 188 188 186 186 186 186 190 188 188 190 186 182 180 178 180 184 184 186 186 182 178 176 176 174 170 174 174 176 176 176 176 178 176 176 172 170 167 165 163 163 159 157 159 157 159 157 153 149 147 143 141 141 137 137 139 137 137 141 145 141 139 139 141 145 149 149 145 143 139 137 137 139 135 133 129 125 125 121 125 125 125 127 127 125 123 123 123 123 123 123 121 117 115 115 115 115 115 117 115 115 119 121 121 121 117 119 119 115 113 109 105 103 99 95 91 87 85 82 82 85 85 85 85 82 85 85 82 82 87 91 93 97 97 97 97 99 99 101 105 103 103 103 101 103 107 111 113 115 119 119 123 125 125 125 125 127 129 133 133 137 135 137 139 139 139 139 143 147 143 139 135 135 135 139 141 141 141 137 135 135 137 137 139 143 145 147 149 147 145 149 147 143 143 143 139 135 131 129 129 129 125 127 129 127 127 129 133 137 133 135 133 131 131 131 127 123 121 117 117 113 113 113 117 119 117 115 113 109 107 111 109 107 107 111 111 109 109 109 111 113 113 115 117 117 119 123 125 123 123 125 125 127 127 129 133 133 131 135 135 137 137 141 143 143 147 149 153 149 153 153 151 153 151 151 155 153 151 155 155 155 157 157 153 153 155 157 157 161 163 163 165 165 167 172 172 176 176 174 170 167 170 165 170 170 170 172 172 170 167 170 174 172 172 174 176 176 176 176 176 174 170 170 172 167 170 172 176 178 174 176 172 170 172 176 172 167 165 165 170 165 161 163 163 163 165 167 165 163 163 165 163 159 155 151 149 145 141 139 137 133 129 125 121 119 117 117 115 111 111 111 107 103 101 97 93 93 91
95 93 93 95 93 93 89 87 89 91 95 95 97 95 95 97 95 93 95 93 89 89 91 91 91 95 97 99 95 93 91 91 91 87 87 82 80 80 78 76 74 74 74 74 74 76 74 74 74 74 78 78 78 76 74 72 72 72 76 78 76 76 74 78 78 76 74 72 74 76 76 80 85 85 85 82 85 85 82 80 80 82 87 91 93 93 93 91 93 97 95 99 99 101 97 101 97 97 97 97 101 105 101 101 103 107 107 105 101 99 99 97 99 99 97 95 99 95 95 93 91 91 91 93 91 91 93 97 99 99 97 93 95 95 99 101 103 101 103 103 103 99 97 97 101 99 101 97 99 99 101 105 107 107 107 105 107 109 111 113 113 115 119 119 119 123 123 127 129 127 125 127 125 125 125 125 125 123 123 123 119 119 119 119 119 117 115 119 117 121 123 123 125 123 121 123 119 117 113 115 119 117 117 119 121 121 125 125 123 127 123 121 123 125 125 121 121 125 125 125 125 123 125 121 119 119 123 123 125 127 123 121 123 121 123 123 125 129 131 129 129 129 133 131 127 129 127 125 123 121 119 123 121 117 115 113 115 113 111 109 113 111 109 105 105 107 103 101 97 101 101 99 99 97 95 95 93 93 95 95 97 97 99 101 103 101 99 99 101 105 105 105 105 109 107 111 113 115 115 115 115 119 121 121 125 125 123 119 115 119 119 117 121 121 121 121 123 127 127 125 125 125 123 121 123 121 125 123 127 127 125 127 127 127 131 135 133 135 133 131 133 133 133 133 135 139 143 145 147 151 153 157 161 165 167 170 170 172 176 174 178 176 176 180 178 180 178 180 178 182 184 188 188 192 192 196 196 198 200 200 196 198 194 192 188 188 188 190 188 186 186 186 182 186 190 188 190 188 186 182 180 180 180 180 182 182 180 178 178 176 172 170 172 176 178 178 180 180 182 180 178 174 172 170 165 167 165 161 159 161 157 157 155 153 151 147 145 141 139 139 139 141 139 141 143 143 143 143 143 143 147 149 151 147 145 141 139 135 135 133 131 127 125 129 125 127 125 125 125 123 123 123 125 123 125 123 123 121 119 115 119 117 115 119 117 115 117 121 117 117 119 121 119 117 113 111 109 105 103 99 95 91 87 87 87 85 87 89 87 87 87 89 89 87 85 87 89 91 95 99 97 99 97 97 101 105 103 101 103 101 105 109 113 117 115 117 121 123 125 125 127 127 131 131 131 133 133 131 135 135 137 139 139 141 143 145 141 137 137 135 137 137 141 143 139 137 137 135 139 143 145 145 143 145 145 145 145 145 141 145 141 137 135 133 129 131 127 125 127 127 127 127 131 135 139 137 135 133 131 131 131 127 123 123 119 119 117 113 117 119 117 117 119 117 113 109 109 109 105 103 107 111 111 113 111 111 115 113 115 113 117 121 123 127 125 125 127 129 131 129 131 129 131 133 137 137 139 141 145 147 147 149 149 151 153 155 157 153 157 155 151 151 153 155 157 159 157 161 159 157 157 157 159 159 161 163 165 167 167 170 172 172 174 174 172 170 172 172 170 172 172 174 174 176 172 172 172 172 174 176 176 176 178 176 174 172 170 167 170 170 170 172 174 178 176 172 172 170 167 170 174 174 170 167 163 167 163 161 161 163 165 163 165 165 163 161 161 161 157 155 155 151 149 143 141 137 133 129 125 121 119 119 115 115 113 115 113 109 103 101 97 93 93 91
99 95 95 97 95 97 93 89 91 91 95 93 97 95 97 95 95 93 95 93 91 91 93 91 95 97 101 101 97 95 95 93 89 87 85 85 85 82 80 80 78 74 72 74 76 78 76 78 78 76 74 74 76 74 70 74 72 74 78 80 78 76 76 80 80 76 72 72 76 76 80 85 87 89 85 85 87 85 85 82 82 85 85 89 93 95 91 91 95 95 93 97 95 97 99 99 97 97 97 97 99 101 101 103 103 105 105 101 99 97 97 97 97 99 97 97 99 97 97 93 91 91 91 93 95 95 97 101 103 101 97 97 97 97 101 103 103 101 103 99 99 95 97 101 103 103 99 97 101 101 103 107 109 109 105 105 109 109 113 115 115 117 117 121 119 119 121 125 125 129 125 125 127 127 127 125 125 123 125 123 119 119 121 119 121 117 115 115 117 119 123 125 123 123 121 121 117 115 113 113 117 117 117 115 117 119 123 121 121 123 123 119 121 121 125 125 123 127 125 125 121 121 121 119 119 117 121 123 127 123 121 121 121 119 123 125 127 127 127 129 129 127 131 133 129 125 125 125 123 121 119 121 119 117 115 117 119 115 115 111 111 107 107 107 107 105 101 97 97 99 101 101 101 99 97 97 97 95 99 95 97 99 101 103 107 103 101 103 105 107 107 105 105 109 111 111 113 113 115 115 115 119 121 121 123 123 121 117 117 119 121 121 123 125 123 123 125 125 129 127 127 127 127 125 125 125 127 127 129 131 129 127 129 131 131 133 135 133 133 133 135 135 135 135 137 139 143 145 149 151 155 159 163 167 167 167 172 174 176 174 178 174 174 176 178 180 178 180 178 182 186 186 188 190 192 196 196 198 200 200 198 196 196 192 188 188 188 188 188 188 186 182 182 186 188 186 188 186 184 180 180 178 176 176 178 178 178 176 178 174 172 172 174 178 182 182 182 180 180 182 178 176 172 167 165 165 167 163 161 159 157 155 155 155 151 151 147 145 143 141 139 143 143 145 145 145 147 147 145 145 147 149 149 145 143 139 135 133 133 129 133 131 129 129 129 131 127 125 125 127 123 123 127 125 125 123 121 119 117 117 119 117 115 119 119 117 115 117 115 117 119 119 117 115 113 111 111 107 103 99 95 91 89 89 89 89 91 91 91 89 89 91 91 87 82 87 91 93 97 95 97 101 97 99 103 103 101 99 101 103 105 109 111 115 117 119 121 121 123 125 123 125 127 129 127 131 133 133 135 135 139 141 143 143 145 141 139 139 141 137 137 139 143 143 141 139 139 135 137 141 143 141 139 141 143 145 143 141 141 141 141 137 135 133 133 131 129 125 129 129 129 131 131 133 135 137 137 133 129 127 127 125 123 121 119 119 121 117 117 117 119 119 117 113 113 113 113 109 105 105 107 109 109 113 113 111 113 115 117 115 119 123 127 129 127 127 129 133 135 131 135 131 133 135 139 141 143 145 149 149 147 147 149 153 155 159 157 157 161 157 153 153 155 157 159 163 159 159 161 157 159 161 163 161 163 165 167 165 165 170 170 174 176 172 170 167 170 172 172 172 176 176 172 176 176 172 176 172 174 176 178 174 174 174 172 170 170 167 172 172 170 174 176 176 172 170 170 165 167 172 174 172 167 167 163 163 163 159 159 163 165 163 161 161 161 159 161 159 159 157 157 155 151 147 141 137 135 131 127 123 119 115 113 113 113 113 111 107 103 99 95 93 93 91
101 97 99 97 97 99 97 93 93 95 95 93 93 97 95 91 95 95 95 93 95 93 93 95 97 101 101 99 95 93 93 91 89 85 85 87 85 82 82 80 80 76 72 72 74 74 78 82 78 78 76 72 72 72 72 76 76 76 80 78 76 78 80 82 85 80 76 74 76 80 85 85 89 85 85 85 82 87 89 85 85 85 89 91 95 97 95 91 93 91 91 95 95 99 99 103 101 99 99 97 101 103 103 101 101 103 101 97 97 97 97 93 97 99 99 99 101 99 95 95 95 95 93 97 97 99 101 103 105 101 101 97 97 99 103 105 103 101 103 99 95 95 99 101 103 103 99 97 99 103 105 109 105 109 107 105 107 109 113 115 119 121 121 123 121 123 125 129 127 129 127 127 129 131 127 127 123 123 123 123 119 119 117 115 117 115 115 117 119 119 121 121 121 121 121 117 113 113 115 113 115 117 115 117 119 121 121 119 117 119 121 119 121 123 125 121 123 125 123 121 119 117 119 119 121 117 121 123 123 121 121 119 123 119 123 125 127 129 129 129 127 127 129 129 131 127 127 129 125 121 119 121 121 119 117 119 119 119 115 113 113 109 107 107 105 103 103 99 101 99 99 97 99 97 97 99 97 97 101 99 97 101 101 103 105 105 103 103 107 109 107 105 107 111 107 113 113 109 111 113 117 121 119 117 121 123 121 117 119 121 119 119 123 123 123 123 127 127 129 131 129 131 131 127 127 127 131 131 133 131 129 129 133 135 135 135 139 137 137 135 139 139 139 137 141 141 145 147 147 151 155 159 161 165 167 172 174 174 178 174 174 176 176 178 178 182 178 178 180 182 186 186 188 192 194 196 198 200 200 198 200 196 196 192 192 190 188 190 188 184 184 182 184 186 186 182 186 186 182 182 180 178 174 172 174 176 176 172 176 174 172 172 172 176 178 180 178 182 182 184 182 178 174 170 167 163 165 163 161 161 157 155 159 157 155 155 151 149 147 143 143 145 147 147 145 149 147 145 143 143 147 149 145 145 141 139 137 135 133 129 133 133 133 131 133 135 131 129 127 127 127 125 127 127 125 121 119 119 121 119 119 115 117 117 119 117 115 117 115 115 119 117 115 119 115 111 109 105 101 97 95 93 91 93 91 89 93 93 91 87 89 89 91 87 82 87 91 95 97 95 97 99 95 95 99 101 101 99 101 101 103 107 109 113 113 117 117 117 119 121 123 123 127 125 123 127 131 133 131 133 137 141 143 141 143 139 141 141 139 137 137 137 139 141 141 137 137 137 139 141 139 137 137 139 141 145 141 139 139 139 139 135 135 135 137 133 129 127 131 133 131 133 133 133 133 133 133 129 129 125 125 127 125 125 123 123 123 119 121 121 117 117 119 115 115 113 113 111 107 105 103 105 105 109 111 111 109 113 117 119 119 123 127 129 129 131 131 135 133 133 137 135 135 135 139 143 145 147 151 149 149 151 151 151 155 159 157 157 159 155 151 153 157 161 161 165 163 161 161 159 161 161 163 165 167 167 167 165 170 167 167 172 176 174 170 165 165 170 172 170 174 172 172 174 172 172 174 176 176 176 178 176 176 174 176 172 170 170 172 172 172 172 172 172 170 165 165 165 165 170 170 170 170 165 163 161 161 161 161 163 163 163 165 165 163 159 159 159 161 159 159 157 153 147 143 139 135 131 127 123 119 117 115 115 113 111 107 105 101 97 95 93 93 95
101 101 99 97 101 101 99 95 97 99 99 97 95 95 95 93 97 97 93 93 91 95 95 95 99 99 97 101 97 93 91 89 89 85 85 82 87 85 80 78 82 78 74 74 78 78 82 82 80 78 76 76 76 76 76 80 80 78 80 78 76 78 80 85 82 80 76 78 80 85 87 85 87 87 85 85 85 85 85 87 87 89 93 93 91 95 93 91 95 91 89 93 95 95 99 101 103 99 97 97 99 101 99 97 101 99 97 95 93 93 93 91 93 95 99 99 99 95 95 97 95 99 97 99 99 99 101 103 101 101 101 99 101 103 105 107 107 105 101 97 97 95 99 99 103 101 97 97 101 105 109 107 107 109 109 107 107 111 113 115 119 119 119 119 123 127 125 127 129 131 129 127 129 129 127 127 123 123 119 119 119 115 115 115 119 115 115 119 123 121 121 121 121 119 117 113 113 113 117 115 117 117 115 115 117 119 119 115 113 117 119 121 123 125 123 121 125 123 121 119 115 115 119 119 121 117 119 121 121 119 119 119 123 123 125 125 125 129 129 127 125 125 127 127 131 131 129 129 127 125 123 119 119 119 119 119 119 121 117 113 113 113 109 109 107 105 101 99 101 101 99 97 101 99 97 99 97 97 99 99 99 101 101 101 103 107 107 105 109 111 109 107 105 109 109 109 109 109 109 111 115 119 117 117 121 121 119 117 117 121 119 119 123 123 125 125 127 127 131 131 129 129 129 131 127 131 131 135 131 131 133 131 133 133 135 135 137 137 139 137 141 143 143 139 143 143 143 145 149 149 153 155 159 163 165 167 172 174 174 174 178 178 176 176 176 178 178 176 180 182 186 184 186 190 192 196 200 200 196 196 198 196 198 194 192 190 188 190 190 188 184 184 186 186 184 184 186 186 184 182 182 178 174 174 176 174 174 174 174 172 172 172 174 174 176 176 176 178 180 182 180 178 174 170 167 163 165 163 163 161 159 159 161 161 157 157 153 151 149 147 145 145 147 149 149 147 145 145 143 143 143 147 143 141 141 141 141 139 137 133 135 135 131 131 133 135 133 131 129 129 129 129 129 131 127 125 121 123 121 117 115 115 115 115 117 117 119 117 117 119 119 115 113 115 115 115 111 109 105 101 97 97 93 93 93 91 91 89 89 87 89 91 91 87 85 87 91 95 99 95 97 97 99 95 99 99 101 99 103 103 105 109 111 111 111 113 115 115 117 119 119 121 125 123 119 125 129 131 135 137 137 137 141 139 139 139 141 143 139 137 137 135 137 139 139 137 137 137 137 137 137 133 133 137 141 141 137 137 137 139 141 137 137 139 135 131 131 131 129 131 131 131 133 133 131 131 129 127 129 127 127 127 127 127 125 123 123 121 125 123 119 117 119 117 119 115 111 109 105 105 103 103 103 105 107 111 111 113 115 117 121 123 127 131 129 133 131 135 135 135 135 135 139 137 139 143 147 151 153 153 149 149 153 151 155 155 153 157 157 153 151 155 157 159 161 163 161 161 161 163 163 165 165 167 170 172 170 167 165 165 167 170 172 172 172 167 170 165 167 170 172 170 174 172 174 174 174 176 174 174 176 172 176 176 178 176 174 172 170 167 174 170 170 172 170 170 165 167 167 167 167 167 167 163 161 161 163 163 163 167 163 165 161 161 161 161 161 163 163 161 159 155 151 147 143 139 135 129 127 123 119 115 115 115 111 107 105 101 101 97 97 95 95 93
103 103 101 101 105 101 99 97 97 101 101 99 95 97 99 95 95 95 93 93 91 91 95 95 99 97 95 97 95 91 89 85 89 85 87 85 85 85 80 78 80 78 76 78 82 80 82 85 82 78 80 80 78 80 80 82 82 80 82 80 78 78 82 87 85 82 80 82 82 80 87 85 85 89 89 87 85 85 87 91 89 93 95 93 93 93 93 93 93 89 89 93 93 95 97 101 103 101 101 101 103 101 99 99 99 97 97 97 95 93 89 87 91 93 97 101 101 99 99 99 99 101 101 101 101 101 103 101 101 99 101 101 105 103 105 109 107 107 103 99 99 97 97 99 101 99 99 97 101 105 105 109 109 111 113 109 109 113 117 115 115 119 123 123 121 125 125 125 127 131 129 129 127 127 125 129 125 123 123 119 123 119 117 117 115 115 117 119 119 121 119 117 117 117 117 115 115 115 117 117 117 119 117 119 115 117 115 115 113 113 117 117 121 125 127 125 127 123 121 121 117 115 119 123 121 119 119 123 123 121 119 123 121 121 123 121 125 127 127 129 129 127 131 131 129 131 131 131 129 127 123 119 119 115 115 117 121 119 115 113 109 111 111 109 105 103 101 103 103 103 101 99 97 99 99 99 101 99 101 101 103 105 105 103 107 105 107 107 107 107 109 105 105 109 109 111 111 109 109 113 115 117 115 115 119 117 117 119 119 119 119 121 123 125 127 125 125 125 127 131 129 131 133 133 131 135 133 133 133 135 137 135 135 137 137 135 139 137 141 139 141 141 145 143 147 145 145 147 147 149 151 155 159 163 163 165 167 170 170 170 174 178 176 176 178 176 174 174 178 180 182 184 186 190 194 198 198 202 198 196 196 194 194 192 188 190 192 192 192 190 188 188 190 186 188 184 186 186 184 182 180 176 174 174 174 172 170 174 174 172 174 172 176 174 174 176 176 178 180 182 182 180 176 172 167 165 163 161 161 159 163 161 163 165 161 159 157 155 153 151 149 147 151 151 151 147 147 147 143 143 143 143 145 143 143 143 143 141 139 135 137 133 133 135 133 135 133 133 133 133 131 131 129 127 129 127 125 123 119 119 117 117 115 115 115 113 119 119 119 119 115 115 113 113 111 111 111 107 105 103 99 99 97 97 93 91 91 89 87 85 87 89 87 82 82 87 91 95 97 97 97 97 99 95 97 95 97 95 99 103 103 107 109 113 111 115 113 111 115 117 121 123 123 123 121 125 127 131 135 137 135 135 139 137 137 137 141 141 139 137 135 133 137 137 137 137 135 137 135 133 135 133 129 133 137 137 137 137 139 141 141 139 139 137 133 129 127 127 129 131 133 133 131 133 133 133 131 127 127 123 129 127 131 129 127 123 125 125 123 121 119 117 117 115 117 115 113 109 105 109 105 103 103 105 109 111 115 117 117 121 121 125 129 131 133 135 135 137 137 137 137 137 137 139 141 145 147 149 153 149 151 151 149 151 155 151 151 153 153 151 151 155 159 157 161 161 161 163 163 165 163 167 167 172 170 174 172 167 165 165 165 170 170 170 167 165 167 165 165 165 170 167 172 167 170 172 170 172 172 176 174 172 176 178 178 174 174 170 170 170 170 165 167 167 172 172 167 172 170 167 165 165 165 167 163 161 163 163 163 167 165 163 159 157 159 159 159 161 161 161 159 153 151 147 143 137 135 131 127 123 119 117 117 113 109 105 105 103 103 99 99 99 97 93
107 107 105 101 103 101 101 101 101 105 103 101 99 99 99 97 95 95 95 95 95 93 95 97 97 97 95 95 93 89 87 85 89 87 89 85 87 85 80 78 80 80 80 80 82 82 85 82 82 82 82 85 82 82 85 87 85 82 85 85 80 82 85 87 87 82 85 82 85 82 82 85 87 91 89 91 89 89 91 91 91 95 97 95 93 93 93 97 93 91 93 93 97 97 97 101 103 103 105 103 103 99 101 99 99 95 97 97 93 89 87 87 89 93 97 101 105 103 101 101 103 105 103 101 99 99 103 99 99 99 97 101 105 101 105 107 109 105 101 99 97 95 95 95 99 99 101 101 105 107 107 109 111 115 113 111 111 115 117 115 115 119 121 121 117 123 125 121 123 127 125 129 127 125 123 125 123 127 123 123 127 123 121 119 117 117 121 121 119 117 115 115 117 119 121 117 117 117 121 119 119 119 121 119 115 113 111 111 113 113 115 119 121 125 129 129 125 123 125 123 119 119 123 125 123 121 123 125 121 121 123 121 119 119 123 121 123 121 125 127 131 131 135 133 129 133 133 131 129 127 123 121 121 117 119 115 117 117 113 111 107 107 111 107 105 103 103 105 103 101 101 97 97 97 101 101 103 103 101 105 105 105 109 107 107 105 109 111 107 109 109 109 107 109 111 111 115 113 109 113 115 115 115 113 115 115 117 117 117 117 121 123 125 127 127 123 123 123 123 127 127 127 129 131 133 137 133 135 135 137 139 137 139 137 137 137 139 139 141 141 143 143 145 147 149 149 149 151 151 151 153 153 155 159 161 163 163 165 165 167 170 174 176 174 176 174 176 174 178 180 182 184 188 190 194 196 198 198 200 200 196 192 192 188 188 190 194 192 192 194 192 190 194 190 190 186 184 182 188 184 180 176 178 174 170 170 170 172 176 176 176 176 176 176 176 176 178 180 184 182 182 182 178 174 170 165 163 165 163 159 161 163 163 163 159 157 155 153 153 153 151 149 153 153 151 147 147 145 143 139 145 143 143 141 141 143 145 143 141 139 135 133 133 131 131 133 135 135 137 137 135 133 131 127 127 125 121 119 117 115 113 115 119 119 115 115 119 117 117 117 117 117 113 113 113 111 107 107 105 103 103 101 97 95 93 91 93 89 85 85 87 89 85 80 80 85 89 93 97 99 99 97 97 95 95 91 93 95 99 103 103 107 111 109 113 113 113 113 115 117 121 121 121 119 121 125 129 131 135 139 137 135 137 137 139 139 139 137 135 133 131 131 135 133 135 137 133 133 131 131 133 131 131 131 135 137 141 139 139 143 141 143 141 137 133 129 129 129 131 131 133 131 131 131 133 131 129 127 127 125 127 129 129 127 125 125 127 127 125 121 117 115 115 111 115 115 113 109 109 109 105 103 103 101 107 109 113 117 117 119 123 127 129 131 135 135 133 135 137 135 135 137 141 141 143 145 145 149 151 149 151 151 147 147 151 149 149 151 151 151 153 157 157 155 157 159 161 161 165 163 161 165 170 170 174 176 172 167 167 167 170 167 167 167 165 165 167 165 165 165 165 165 167 167 165 170 167 167 170 172 176 172 176 180 178 176 172 172 172 170 170 165 167 170 172 170 170 172 174 170 170 165 161 165 161 159 159 159 161 163 163 161 157 155 157 157 157 159 157 159 155 151 149 145 139 135 133 129 125 121 119 117 115 111 109 107 107 103 103 101 103 99 95 93
111 107 107 105 105 105 103 103 105 107 107 105 103 101 101 97 95 95 95 95 95 93 97 99 99 99 95 99 95 93 89 89 91 91 89 89 87 85 85 80 85 82 85 85 85 87 82 82 82 85 87 89 87 87 89 91 89 87 85 82 82 87 85 85 87 85 87 85 87 87 85 85 85 89 89 89 91 93 93 91 93 95 97 99 97 95 95 93 93 93 93 93 93 97 97 101 103 101 101 101 99 97 99 95 97 95 97 97 93 89 87 89 93 97 99 103 105 105 103 103 103 107 105 103 101 101 99 95 97 99 99 101 101 99 103 105 107 107 105 101 101 97 93 91 95 99 99 103 107 109 107 111 113 117 117 113 115 117 119 117 117 115 119 119 119 121 121 121 119 123 123 125 123 121 119 121 123 123 123 127 123 123 125 123 119 117 117 117 117 115 113 113 117 119 123 119 117 119 119 123 119 119 117 115 115 111 109 107 111 115 119 121 123 123 127 125 125 125 125 121 121 123 123 125 123 123 127 127 125 123 123 121 121 121 123 121 123 121 123 125 127 131 133 133 133 133 129 129 131 131 127 125 121 119 117 115 119 117 113 109 107 111 109 107 107 107 107 107 105 101 99 99 101 99 101 105 107 105 105 107 105 105 107 109 109 109 111 109 109 111 111 109 111 113 113 109 113 115 113 117 117 113 113 109 113 115 117 117 119 119 121 121 123 127 127 125 127 123 123 123 125 123 127 129 133 137 135 139 137 139 137 133 139 141 139 137 141 143 143 143 143 145 147 149 151 153 151 155 153 151 151 153 153 155 157 159 159 161 163 163 167 172 174 172 174 174 176 174 178 182 186 186 190 194 194 194 198 200 202 202 200 196 192 188 190 186 192 188 190 190 192 192 194 194 190 188 186 184 184 180 180 180 180 176 174 170 172 174 178 178 178 180 178 178 176 176 178 182 186 184 182 182 180 176 172 170 167 165 161 159 161 161 159 159 161 161 159 155 153 149 151 149 153 153 153 149 147 143 143 141 141 143 147 145 141 143 145 143 141 137 137 137 137 133 133 135 137 137 141 141 137 133 129 125 127 123 119 115 115 111 115 117 119 119 117 115 117 119 119 117 117 115 111 113 113 111 111 111 107 105 103 99 95 93 93 91 91 87 87 87 87 85 80 80 82 85 87 91 95 99 101 97 97 95 91 91 91 93 97 101 103 107 111 111 115 113 109 113 117 119 123 123 121 119 123 125 129 131 133 137 139 137 139 141 141 139 139 135 133 131 131 131 135 133 137 135 133 129 129 129 133 131 131 133 133 135 139 143 141 143 143 139 137 133 131 131 127 127 129 133 131 129 131 131 135 133 131 131 127 125 127 125 129 127 125 123 123 123 121 119 115 115 115 113 113 115 113 111 113 111 109 105 105 103 107 111 113 115 117 121 123 125 127 129 131 131 131 133 133 133 135 139 143 145 147 147 145 147 149 153 153 149 147 145 147 145 145 149 149 149 149 153 155 155 157 157 159 159 163 161 161 165 167 167 172 176 172 170 165 167 170 167 163 163 167 167 170 165 167 167 170 165 165 165 165 167 165 165 167 170 172 172 174 176 176 172 172 174 172 172 170 165 165 170 170 167 167 170 170 167 165 163 163 163 159 161 157 157 157 159 159 157 155 151 153 153 153 157 155 157 153 149 145 141 137 135 131 127 123 119 115 113 113 109 109 105 105 101 101 97 99 97 93 91
109 107 111 107 107 107 107 107 109 109 109 109 105 105 101 97 97 95 97 95 97 95 95 95 99 99 95 95 97 93 93 91 91 93 91 91 89 89 85 82 85 87 87 89 87 85 82 80 80 82 87 89 89 87 91 89 89 87 85 82 87 82 85 82 85 85 82 87 89 87 85 85 87 85 85 87 91 91 95 93 93 95 99 97 93 93 93 91 95 97 95 93 93 95 97 99 99 99 101 101 101 97 95 93 95 97 99 97 93 89 87 89 93 97 101 103 103 107 105 103 103 103 107 105 103 103 99 97 99 101 101 97 103 99 99 103 105 107 105 103 101 97 95 93 95 99 101 105 109 107 107 111 115 119 121 117 115 115 115 113 117 117 119 119 117 117 119 121 121 121 121 125 123 121 119 119 123 119 121 125 127 127 125 121 119 119 115 115 115 111 109 111 113 117 121 119 119 119 119 121 121 121 119 115 113 109 107 107 107 111 115 119 123 123 125 125 125 123 123 123 121 121 125 125 125 127 131 129 129 125 121 121 123 123 125 125 123 123 123 125 129 131 135 133 135 135 133 133 133 129 129 127 123 121 117 117 121 117 113 111 111 111 111 109 109 109 111 107 103 103 101 99 99 103 105 109 111 109 107 109 107 107 111 111 111 113 109 109 113 113 111 109 113 111 109 109 113 115 117 117 113 111 111 111 111 115 119 119 121 121 121 119 121 125 125 125 125 123 125 121 125 123 125 127 131 135 135 137 139 137 135 135 139 139 141 137 141 145 145 141 141 143 145 149 153 157 153 155 155 153 153 153 151 151 153 157 155 157 159 161 163 167 172 172 174 174 174 172 176 180 182 184 188 192 196 194 198 202 206 202 200 196 192 190 188 188 188 188 188 188 190 194 194 192 190 188 188 188 184 180 180 178 176 174 174 172 172 174 176 178 178 178 178 182 178 176 180 182 182 180 180 182 182 178 174 170 170 165 161 159 159 163 163 161 163 163 159 155 151 149 149 153 151 149 149 147 145 143 143 145 145 143 147 147 145 143 143 141 139 137 137 141 137 137 135 139 141 141 139 139 135 133 129 125 123 119 117 115 115 113 113 117 117 117 115 115 119 119 117 117 113 111 111 111 113 111 109 109 107 105 101 99 95 93 93 95 95 91 91 87 85 85 82 80 80 82 82 87 91 95 97 97 95 95 95 93 93 93 97 99 103 107 111 113 111 111 111 113 115 119 119 119 119 119 121 125 127 131 133 137 139 141 143 141 145 143 139 135 131 129 129 131 133 131 133 135 131 131 131 131 133 131 131 133 131 135 137 141 145 141 139 137 133 131 129 129 129 129 131 131 131 129 129 131 131 133 131 131 127 125 129 127 129 127 123 121 121 121 123 121 117 115 117 117 117 117 115 113 111 109 109 107 105 107 109 111 115 115 119 123 125 127 127 131 129 129 129 129 131 131 135 139 143 145 149 151 149 151 151 151 153 151 147 145 147 145 141 145 149 147 147 151 151 155 159 159 157 157 159 161 161 163 167 170 174 174 170 167 165 165 165 170 165 163 167 167 167 165 170 172 167 165 165 167 165 165 165 167 172 170 172 170 172 172 176 174 172 170 170 170 167 165 165 167 167 167 167 167 167 165 163 163 163 161 159 157 153 153 153 157 155 153 151 149 149 149 149 153 153 153 151 149 145 141 137 133 129 127 123 119 115 113 109 111 109 105 101 99 97 93 97 95 91 87
113 111 113 109 109 109 109 111 113 113 113 111 109 107 105 101 99 95 95 95 95 95 95 95 97 97 95 97 97 97 93 93 93 93 95 91 89 89 87 87 87 87 89 91 89 85 82 80 78 82 82 87 89 91 89 91 89 87 85 85 87 82 87 82 80 85 85 87 91 89 87 89 89 89 89 87 91 93 97 95 95 99 97 95 95 91 91 91 93 95 95 93 95 99 101 99 97 99 97 99 99 97 93 89 93 97 97 99 95 93 91 91 95 99 101 105 107 109 107 105 105 103 105 103 99 99 97 97 97 99 101 99 101 101 103 103 103 107 107 105 103 101 99 97 97 101 105 109 111 109 111 115 117 121 121 119 117 117 117 115 119 119 117 115 115 119 121 123 121 125 125 127 125 123 121 121 123 123 123 123 125 129 125 121 117 115 113 111 117 113 111 113 115 115 117 117 115 117 119 119 123 121 119 117 115 111 109 109 109 113 115 119 121 121 123 125 121 121 125 125 123 123 125 129 127 131 131 129 127 125 123 123 127 125 129 127 127 127 127 127 131 135 135 137 139 139 135 135 135 131 133 129 125 123 121 119 121 119 115 113 113 113 115 113 113 113 109 107 103 105 103 99 101 103 107 109 111 113 111 111 111 107 111 111 113 117 113 111 113 115 115 111 115 113 111 109 113 117 119 119 115 111 111 113 115 117 121 123 119 121 117 117 121 125 125 127 123 125 123 121 121 123 121 125 129 133 137 139 137 137 137 135 137 139 143 141 145 141 147 145 143 145 149 151 151 153 153 157 155 153 155 155 153 155 153 153 151 155 157 159 161 165 170 170 174 178 174 172 176 180 184 186 188 192 194 196 200 202 206 204 200 196 194 192 190 192 190 188 188 192 192 192 196 196 194 190 192 188 184 182 178 178 180 178 178 176 176 176 176 174 176 178 180 184 182 178 178 178 180 176 180 178 178 176 174 172 174 170 165 161 163 165 167 163 163 161 159 157 155 153 153 155 151 147 147 147 147 145 145 145 145 145 145 147 147 145 143 141 143 141 137 139 141 139 139 141 143 139 137 137 133 129 127 123 121 119 117 119 117 113 113 113 115 117 115 119 121 121 119 115 111 113 113 113 115 113 113 111 109 107 103 101 97 95 97 99 97 93 93 89 87 87 82 82 80 85 85 89 91 91 93 95 93 93 93 97 97 95 99 101 99 105 109 113 113 113 113 111 113 115 119 117 117 119 123 127 131 133 133 135 139 143 145 143 145 145 141 137 135 131 129 129 131 131 133 133 133 133 135 135 135 133 135 133 131 135 137 141 143 141 137 135 131 131 129 133 131 131 127 129 131 129 131 135 135 135 133 131 129 129 129 129 127 125 123 119 119 123 125 121 119 119 121 121 117 117 115 111 109 107 107 111 107 109 111 115 117 119 119 121 123 125 129 131 129 133 129 127 129 133 137 141 145 147 149 153 151 153 151 151 155 151 147 147 147 143 143 143 147 147 147 149 153 157 159 155 155 157 161 163 163 163 165 170 170 174 170 170 167 170 170 167 163 163 163 167 165 167 167 172 172 167 167 170 170 165 170 167 170 172 167 170 167 172 172 176 172 172 172 167 165 165 165 167 170 170 170 167 167 167 165 165 163 165 161 157 155 153 155 153 151 149 147 145 145 145 145 149 149 151 149 145 141 139 137 133 129 125 121 119 115 111 109 109 107 103 101 97 95 95 95 93 89 87
113 113 111 109 109 113 113 113 115 117 115 113 111 109 107 103 99 97 95 97 93 93 95 93 97 95 91 95 99 95 93 91 91 91 91 89 85 87 89 89 91 87 91 91 89 87 82 80 78 80 85 87 89 87 87 87 89 87 87 89 91 87 85 82 82 82 85 82 89 89 89 89 93 89 89 91 91 95 99 97 95 99 101 99 97 95 93 93 97 97 97 95 97 97 99 99 95 95 95 97 97 95 93 91 91 93 95 97 93 93 93 95 97 99 103 107 109 109 107 109 107 103 103 99 97 97 97 97 99 101 101 101 101 105 105 105 107 105 107 103 105 103 103 99 101 103 107 111 113 113 115 117 121 125 125 121 117 117 117 119 121 121 119 117 115 119 121 125 121 123 125 123 123 123 123 125 125 123 125 125 125 125 121 119 115 113 113 113 115 113 115 117 117 117 117 117 119 119 119 123 123 121 119 119 115 115 111 111 111 111 113 117 117 117 121 121 121 121 123 125 125 123 127 127 131 129 133 131 127 127 127 127 131 127 131 129 129 129 129 131 135 135 137 139 143 143 139 137 139 135 135 131 127 127 123 121 125 121 119 115 115 117 117 115 111 111 109 107 105 105 103 101 101 105 109 111 111 115 113 115 113 111 109 109 109 113 115 111 113 113 113 113 113 113 111 111 113 113 117 117 115 113 113 115 115 117 121 121 119 119 121 119 119 123 125 125 121 123 121 121 125 125 123 125 129 131 135 135 139 137 137 135 137 139 141 143 143 143 145 147 145 147 151 155 155 155 157 157 157 157 159 159 157 155 155 153 153 157 159 161 163 167 170 172 174 176 178 176 180 182 184 188 192 194 196 192 198 202 204 204 202 200 196 196 194 194 192 192 190 190 194 196 196 196 198 194 192 188 186 184 180 178 178 178 180 178 178 178 176 174 176 180 178 182 180 176 174 176 178 174 176 178 178 180 176 174 174 172 167 165 167 170 172 167 167 163 163 161 159 157 155 153 149 147 147 145 149 149 147 147 147 145 149 149 147 145 145 143 141 139 139 143 143 139 141 143 139 137 137 133 133 129 125 125 123 121 117 119 119 117 117 115 115 117 115 119 121 119 117 113 111 111 115 115 119 115 115 113 109 105 103 101 101 99 101 101 97 93 97 93 89 89 87 82 80 80 85 87 89 87 91 91 91 93 95 93 95 97 101 101 101 105 107 109 111 115 115 111 113 113 115 115 115 117 121 125 129 131 131 135 139 141 141 143 143 145 143 139 135 133 131 131 131 131 133 131 133 131 135 133 137 133 135 133 135 133 135 137 141 139 135 131 135 133 129 129 131 131 129 131 129 131 133 137 133 135 133 131 131 129 129 129 129 125 123 121 121 125 127 123 121 121 123 121 119 119 115 113 111 111 109 109 111 113 115 117 121 123 123 125 127 127 131 133 131 135 131 127 131 135 139 141 145 149 149 151 149 149 151 149 151 149 149 151 151 147 145 145 147 149 151 153 155 155 159 157 159 161 161 163 165 167 167 165 170 170 174 170 167 170 172 167 165 163 165 165 163 165 165 170 172 170 167 167 167 165 167 165 167 167 165 165 167 170 174 176 174 174 170 170 167 167 167 167 167 167 167 167 172 170 167 165 161 163 163 159 155 153 153 149 147 145 143 143 141 143 145 145 145 147 145 143 141 139 135 131 127 123 119 115 113 115 111 109 105 103 101 99 95 95 93 91 89 89
109 109 109 111 111 109 111 115 117 119 117 113 115 111 111 107 103 101 99 95 93 93 91 89 93 95 93 95 97 99 95 93 91 93 91 87 87 89 91 91 91 89 89 87 87 87 85 80 80 80 80 85 87 85 87 87 87 91 89 87 89 87 82 82 85 85 85 85 85 87 89 93 93 93 93 93 93 97 95 97 99 101 103 101 99 97 93 95 99 97 97 95 97 93 97 95 93 95 95 95 95 93 91 91 91 93 93 95 93 95 99 99 99 99 101 105 107 107 107 109 111 107 103 99 97 97 97 97 101 99 99 103 105 107 109 105 107 105 105 103 103 105 105 103 103 107 109 109 111 115 117 119 123 125 125 121 119 119 117 117 119 121 119 117 115 117 119 123 123 125 121 121 123 121 123 125 125 127 127 125 127 125 121 117 113 113 113 115 119 117 119 119 121 121 119 117 117 119 121 125 125 123 121 117 115 111 111 113 113 113 113 115 117 117 119 123 121 123 125 125 125 123 125 129 129 125 129 131 129 129 131 129 129 129 129 133 133 133 133 133 135 139 141 143 145 147 143 141 141 137 139 135 131 131 127 125 129 125 123 119 117 119 121 117 113 115 111 107 107 107 103 103 103 105 109 111 107 113 115 111 111 113 109 105 109 111 111 113 111 111 113 113 113 117 115 113 113 117 119 115 115 113 113 113 113 115 117 119 121 121 119 117 117 119 121 121 121 123 123 123 125 129 125 129 131 133 133 133 137 139 137 139 139 141 141 145 143 145 149 149 147 149 149 151 155 157 159 159 155 157 161 161 159 157 157 155 157 157 161 163 167 170 170 174 176 180 178 178 182 182 184 188 190 192 194 194 198 200 204 204 204 204 200 200 196 198 194 194 194 194 198 198 200 200 200 196 194 192 190 186 184 182 182 180 182 178 178 174 178 176 174 178 178 182 178 176 178 178 176 174 178 180 180 180 180 176 178 174 172 170 172 170 167 172 170 165 167 165 161 161 157 155 153 151 147 145 147 151 151 151 149 145 149 151 151 147 143 145 141 139 141 145 145 143 145 143 141 137 139 137 135 131 129 125 125 125 121 121 123 119 119 117 119 119 119 121 121 121 119 117 115 113 115 117 115 113 115 111 109 107 103 105 105 103 105 103 101 97 99 95 93 89 89 87 82 80 82 85 87 85 87 91 91 95 93 93 93 93 97 99 101 105 107 111 109 113 117 113 111 109 113 111 113 115 119 123 125 127 129 131 135 139 141 143 147 145 143 139 135 133 129 133 133 129 129 129 129 129 131 131 133 133 137 133 131 129 133 137 137 135 135 133 135 135 133 133 131 129 129 129 129 131 133 133 133 135 133 133 129 127 127 131 129 125 121 121 123 125 125 121 121 123 123 123 121 119 119 117 113 113 111 113 113 115 117 119 121 125 125 129 129 129 133 137 133 131 131 129 133 137 139 143 143 145 149 153 151 151 153 149 151 153 153 153 151 147 145 149 149 149 151 155 155 151 157 159 161 165 163 163 165 170 170 167 167 170 172 170 167 170 170 167 165 163 163 163 161 161 161 165 170 167 170 170 167 163 163 161 163 163 165 167 170 172 174 178 176 174 174 172 170 170 165 167 163 165 170 167 167 167 165 163 159 163 159 155 155 151 149 147 143 141 141 143 141 139 141 141 143 145 143 141 139 137 135 131 127 123 119 117 113 113 109 107 103 101 97 95 97 95 95 91 91 91
107 107 109 109 111 113 113 111 117 119 119 115 113 113 113 109 107 105 103 99 95 91 89 89 91 93 95 95 97 97 93 91 91 91 89 89 89 91 93 89 89 89 87 82 82 85 87 85 85 85 85 85 85 80 82 87 87 91 89 87 87 85 82 82 87 89 87 85 85 89 91 93 95 95 95 93 95 93 93 95 99 101 101 101 103 99 95 95 99 99 97 95 95 93 93 93 89 91 95 91 95 93 93 89 87 91 93 93 95 97 101 101 101 103 105 105 107 109 107 107 109 109 105 101 99 97 99 99 101 101 101 101 105 105 107 109 111 109 105 107 103 103 105 101 101 103 107 109 113 117 119 119 121 121 121 121 121 119 121 117 119 121 121 117 115 115 119 123 123 121 119 117 119 119 119 123 127 131 129 127 125 123 119 115 111 109 111 115 117 119 119 117 117 117 117 117 117 119 121 125 125 121 119 115 115 111 115 115 115 115 115 113 113 117 121 121 121 125 127 125 123 123 127 127 127 127 131 129 127 129 131 133 131 131 131 133 137 137 137 135 139 141 143 147 149 151 147 143 145 141 139 137 135 133 131 129 131 129 125 121 119 119 121 117 115 115 113 109 107 107 105 107 105 107 109 109 109 111 113 111 109 109 105 105 107 109 109 111 111 111 111 115 117 119 117 113 113 113 117 115 113 113 115 115 115 115 117 119 119 119 119 119 117 117 117 119 121 125 121 121 125 129 127 129 133 135 133 133 137 141 141 139 141 143 145 145 143 143 147 149 149 147 147 151 155 157 159 157 155 155 157 157 161 161 161 159 161 159 163 167 170 174 172 174 178 180 178 180 182 182 184 188 190 192 194 196 198 200 204 204 206 206 204 202 198 196 194 196 198 198 198 198 198 200 196 196 194 194 190 186 186 186 186 184 182 180 176 176 178 176 174 174 178 180 180 180 180 180 178 178 178 182 184 180 178 180 178 178 176 172 170 167 167 167 172 170 167 167 165 161 157 155 155 155 151 149 151 151 153 155 151 147 147 149 149 145 143 143 145 143 145 149 145 145 147 143 141 139 139 139 139 135 131 129 125 123 121 121 119 117 119 119 121 119 121 121 119 119 121 119 117 115 117 119 115 113 113 111 109 107 105 107 107 107 107 107 103 101 97 97 93 91 93 89 87 85 85 82 85 85 87 91 95 93 93 95 93 93 97 99 103 103 105 109 107 109 113 109 109 109 109 109 113 117 121 121 123 125 129 131 135 139 143 143 143 143 141 137 135 131 129 131 133 131 131 131 127 127 131 133 133 135 133 137 133 131 133 133 133 133 137 135 137 133 133 131 129 129 131 129 131 131 131 131 131 131 131 131 129 127 129 129 125 123 123 125 125 123 123 123 123 125 123 127 123 119 119 115 113 115 115 113 115 117 119 117 121 121 123 127 129 129 131 133 133 133 133 133 135 137 137 141 141 143 145 149 149 147 149 153 151 155 157 153 151 147 149 147 147 149 151 153 153 153 157 159 161 165 165 165 167 165 172 170 172 170 170 172 172 167 172 167 167 163 161 161 161 161 161 163 165 163 165 167 163 161 161 161 161 161 165 167 170 172 174 176 174 172 172 170 172 170 165 167 163 167 170 170 167 165 163 161 157 159 157 153 151 147 145 143 141 137 137 139 137 135 137 139 139 141 139 143 141 139 135 131 127 123 119 117 115 111 109 105 101 97 95 95 97 97 93 91 91 87
105 103 105 107 111 113 115 113 117 121 121 119 115 113 113 109 109 109 107 103 99 95 91 91 95 95 95 99 97 93 91 91 91 89 89 93 93 93 89 87 89 89 85 85 85 80 85 82 80 85 85 87 85 80 82 85 87 87 89 87 87 89 85 85 85 87 85 85 89 91 93 97 97 99 99 97 99 97 97 99 101 101 103 99 101 97 95 91 95 97 97 95 93 91 91 89 89 91 91 91 91 95 93 89 89 89 91 95 97 101 105 105 105 105 107 107 109 111 107 103 107 109 107 105 101 97 101 103 103 105 103 105 105 105 109 111 113 109 109 109 107 107 103 103 103 105 107 111 113 117 119 121 123 119 121 123 123 123 119 121 119 123 121 119 115 117 121 123 123 119 117 117 117 119 121 123 125 127 129 127 127 123 121 117 113 111 113 117 119 121 119 119 121 117 119 119 121 121 123 127 125 121 119 115 113 113 117 117 117 115 111 115 113 117 119 119 119 123 125 127 123 123 127 127 129 131 129 127 127 129 133 129 135 133 135 137 137 135 137 137 141 145 147 151 151 153 149 147 143 143 141 137 135 133 133 131 129 131 127 123 121 121 117 113 113 111 111 109 109 109 109 109 109 109 113 111 109 113 111 109 109 107 107 105 105 107 107 109 109 111 113 117 119 117 113 111 111 111 113 115 115 115 117 117 117 117 119 123 121 121 123 121 119 119 117 119 119 121 123 121 125 129 129 133 131 133 135 133 135 137 139 141 145 147 147 147 145 145 145 147 149 147 143 149 151 155 157 155 155 155 159 161 163 161 161 159 161 159 161 165 167 170 172 176 176 180 180 182 184 186 188 192 194 194 196 198 198 202 200 202 202 204 206 206 202 200 196 200 200 200 200 200 196 198 198 198 196 196 192 190 190 190 190 188 186 182 178 178 178 176 178 176 178 180 182 184 180 184 182 182 178 178 182 182 178 178 176 176 176 174 170 167 170 172 172 170 170 170 167 165 161 159 159 157 153 151 149 147 151 153 153 149 147 147 147 143 141 141 145 147 147 147 147 145 145 143 143 141 139 139 139 137 133 129 127 127 125 121 121 117 121 121 121 123 125 125 121 119 121 119 115 113 117 117 115 113 113 111 111 109 107 109 105 109 107 107 105 101 99 97 93 91 89 89 89 85 85 80 80 82 87 91 93 97 93 93 91 91 95 97 101 105 105 109 105 109 109 111 107 107 107 107 109 113 117 117 121 125 127 131 135 139 143 143 143 141 141 141 137 133 133 129 131 131 131 127 127 131 133 131 131 131 133 133 131 131 133 133 133 129 133 133 133 131 129 129 131 129 131 129 131 133 133 133 133 135 135 133 131 129 125 125 129 127 127 127 125 127 123 123 123 125 123 123 121 117 115 113 115 113 113 111 113 115 117 115 117 121 125 123 127 127 129 129 133 135 133 131 135 137 137 139 141 145 149 149 151 147 151 151 153 155 155 153 153 149 147 147 149 151 153 153 155 155 157 157 161 163 163 165 167 167 170 170 172 167 170 170 167 163 167 165 167 165 161 165 165 163 163 163 163 161 163 163 161 159 157 157 161 157 161 165 170 172 176 172 170 167 170 167 167 167 165 167 165 165 167 165 167 165 163 159 157 155 153 149 149 145 143 139 137 139 139 139 137 133 133 135 135 137 137 139 139 135 133 131 129 125 121 117 113 111 109 105 101 97 95 97 97 95 91 89 89 87
105 103 107 109 111 113 117 115 119 121 119 117 115 115 113 113 111 111 109 105 101 97 95 91 95 93 93 95 95 95 91 87 93 91 89 89 89 91 91 87 91 87 85 80 80 80 82 82 82 85 85 85 82 82 82 80 85 87 89 87 87 87 89 87 87 87 85 87 89 89 93 95 95 97 99 101 101 101 99 101 101 97 101 99 97 95 93 93 95 97 99 97 95 93 91 93 93 89 91 91 91 95 91 89 89 91 95 97 101 105 109 109 105 107 109 111 109 109 107 105 105 107 107 105 101 101 103 105 105 109 107 109 109 109 111 109 109 109 113 111 109 109 107 107 105 107 109 109 111 113 115 117 119 119 119 121 121 119 117 119 123 123 125 121 119 119 121 121 119 119 117 117 119 121 121 121 123 125 129 127 125 123 119 115 115 113 113 115 117 121 117 117 119 121 121 123 125 125 123 125 125 121 117 115 113 117 119 117 113 113 113 113 115 115 117 117 119 123 123 125 121 121 125 127 129 127 127 129 131 131 131 131 133 135 135 135 133 133 137 139 143 147 151 155 155 153 151 147 143 143 143 141 137 135 133 129 129 129 129 125 121 119 115 113 111 111 113 113 109 109 113 113 113 113 113 111 111 113 113 109 107 105 107 109 107 107 111 107 107 111 115 113 115 113 111 107 107 109 111 115 117 117 121 117 113 115 119 119 123 121 123 119 115 115 119 115 119 121 125 123 123 127 131 135 131 129 133 131 135 137 141 143 141 145 147 149 147 145 145 147 147 145 145 147 149 153 157 157 159 155 159 159 163 163 163 161 161 159 159 161 163 167 170 174 174 178 182 184 186 188 190 190 194 194 194 196 200 202 200 202 202 206 208 210 206 202 200 198 202 202 204 200 196 198 198 200 198 196 194 194 194 194 194 190 188 186 182 180 178 178 178 176 178 178 182 186 182 186 184 180 176 176 178 178 180 178 178 176 174 172 170 170 172 172 172 172 174 172 172 167 163 163 163 159 155 153 149 149 153 151 149 147 145 145 145 143 141 141 145 149 151 149 149 149 149 145 141 139 139 139 135 133 131 131 129 129 125 125 121 121 123 121 123 123 125 127 125 123 119 117 117 113 115 115 113 113 115 113 111 109 109 107 105 109 105 103 103 101 99 97 93 89 91 91 87 82 80 80 82 82 85 87 91 95 95 93 91 89 93 95 97 101 103 107 105 105 105 107 107 105 105 105 107 111 115 119 123 127 131 135 137 141 143 143 143 143 145 141 139 135 131 129 133 133 131 129 129 131 133 129 133 133 135 133 131 131 133 135 131 131 131 133 135 133 133 129 133 133 133 133 135 135 135 133 135 131 137 133 131 127 125 127 131 131 129 129 127 125 123 121 121 121 121 119 119 115 115 113 115 111 113 111 111 111 115 115 117 121 125 125 125 127 127 131 133 137 133 131 135 135 139 137 141 143 145 145 149 149 149 149 149 153 153 151 149 147 145 145 149 151 155 157 159 155 157 161 161 165 165 167 170 172 172 172 172 167 172 167 167 165 165 163 163 161 165 165 167 163 161 159 165 161 163 161 159 161 159 155 159 159 161 165 167 170 172 167 170 165 167 165 165 165 163 165 165 167 163 161 165 161 159 159 157 153 153 151 147 145 141 139 135 135 137 135 133 129 129 131 131 133 135 137 135 131 131 131 127 123 121 117 113 115 111 107 103 99 99 97 97 93 93 91 93 91
103 103 105 107 111 113 115 117 115 119 117 117 117 117 117 115 111 115 111 107 103 99 95 93 91 95 95 93 95 91 89 89 91 87 85 87 91 93 91 89 89 87 82 78 80 85 85 85 85 87 82 82 85 85 82 82 85 87 89 87 87 89 91 91 89 85 85 87 87 87 89 93 95 97 101 103 105 103 101 97 97 95 99 95 99 95 97 93 93 95 97 95 93 93 89 91 91 89 93 95 93 97 93 91 91 95 97 101 105 109 113 111 109 107 111 113 113 111 109 105 107 111 107 105 105 103 105 105 107 111 109 113 111 113 111 113 111 109 113 111 109 109 107 105 107 107 111 111 115 117 117 115 115 115 115 117 117 115 117 121 123 123 123 123 121 119 119 121 123 123 121 121 119 119 119 117 119 123 125 125 123 123 119 117 113 113 111 113 117 119 115 115 119 121 125 125 125 129 127 127 123 121 117 115 117 119 121 117 113 115 113 117 119 119 117 117 119 121 121 125 125 123 123 125 127 125 125 127 131 131 133 135 135 137 137 137 135 135 139 143 147 147 151 153 153 149 151 149 147 145 145 143 141 137 133 131 129 129 127 123 121 117 117 113 109 109 111 113 109 113 117 115 113 113 111 111 111 111 111 109 105 101 103 105 109 107 109 107 109 111 111 109 113 109 107 105 107 111 113 115 117 119 117 115 115 117 119 119 121 121 121 117 115 119 117 117 119 121 125 125 125 123 129 133 133 131 131 131 135 137 139 141 139 143 145 145 147 145 149 151 149 149 145 145 147 151 155 159 157 157 157 157 161 159 159 163 163 161 159 163 165 170 172 172 176 180 182 186 188 192 188 188 192 196 196 194 196 200 204 200 202 204 208 208 206 204 200 198 200 202 204 202 200 200 200 202 198 200 198 198 196 196 194 194 192 188 184 180 178 182 180 178 182 178 180 182 182 182 186 182 178 180 176 176 178 178 178 174 172 172 174 174 176 174 174 172 174 172 170 167 165 165 163 159 157 153 149 149 151 151 151 149 149 147 147 147 143 143 145 149 149 151 151 151 147 143 141 139 139 135 133 129 133 131 133 131 129 125 123 123 123 123 123 123 123 125 123 121 117 115 113 113 115 119 115 117 113 111 111 113 111 111 107 105 101 101 101 99 97 93 89 85 89 89 85 82 82 80 80 80 85 87 89 93 93 91 87 85 89 93 95 99 101 103 105 105 109 107 103 103 103 103 105 109 113 117 121 125 129 133 137 139 143 147 143 145 145 141 137 133 133 133 135 135 133 129 131 133 131 129 131 133 135 131 131 133 133 131 135 131 129 129 133 131 129 131 131 135 135 135 133 135 135 135 133 133 135 135 133 129 127 129 133 133 131 131 127 125 123 121 121 121 121 119 115 113 113 115 111 111 113 111 111 109 111 113 115 119 123 125 127 129 131 131 135 135 133 131 133 133 135 135 139 141 145 147 149 147 149 145 145 149 149 147 145 143 145 149 147 149 153 157 159 157 159 163 161 165 167 170 167 170 172 172 170 170 172 170 165 165 163 163 165 163 167 165 165 165 161 161 163 161 161 161 157 157 157 153 155 159 163 163 163 165 167 165 165 161 163 167 167 163 161 163 161 163 159 159 161 157 157 161 161 157 157 153 149 147 143 139 135 133 135 133 131 127 127 127 127 131 133 137 135 133 131 129 125 121 117 115 111 113 109 107 103 99 97 95 93 89 89 89 89 93
107 105 107 105 107 111 115 113 113 117 117 117 121 119 117 117 115 115 111 107 103 99 97 93 93 93 93 93 91 91 89 91 91 89 89 89 91 93 89 87 87 85 80 78 82 85 85 82 82 85 85 85 87 82 82 82 87 91 87 87 87 85 89 89 89 87 89 89 87 91 93 97 97 101 103 103 103 101 97 95 95 95 97 97 97 95 99 97 95 97 101 97 95 91 89 89 93 91 91 93 93 95 91 91 93 97 101 103 107 111 115 111 109 111 115 117 115 113 111 109 107 109 105 105 107 105 109 109 109 111 113 115 115 113 111 113 113 109 113 113 111 111 109 105 105 109 111 111 113 113 115 113 111 111 113 115 117 115 117 119 119 119 123 119 119 117 115 117 121 125 125 121 121 119 115 115 119 123 121 121 119 119 115 113 111 111 111 111 115 115 111 113 115 119 123 125 127 125 125 125 121 119 115 115 115 119 117 115 115 117 117 117 121 123 119 117 121 123 121 123 125 127 123 123 125 129 125 129 133 133 133 135 137 137 141 139 137 139 143 147 149 147 149 151 151 147 149 149 149 147 147 145 141 139 135 131 129 129 127 123 119 115 115 111 111 111 111 111 111 115 117 115 115 115 113 113 113 111 111 107 103 101 101 101 105 105 109 109 109 113 109 109 109 107 103 101 105 109 111 113 115 119 115 115 115 119 117 119 121 125 121 117 119 117 119 119 121 123 127 125 125 125 127 129 131 135 131 131 135 137 141 139 139 143 141 143 147 147 149 149 151 147 143 143 145 149 153 157 161 161 157 161 165 163 161 165 165 161 161 163 165 170 167 172 176 178 182 186 190 192 188 190 194 196 192 192 194 198 200 200 200 202 206 206 208 204 202 200 202 204 202 202 202 204 202 200 200 202 200 202 200 198 194 192 194 192 188 184 182 182 180 180 182 182 184 180 180 178 182 182 182 180 176 176 178 176 176 174 174 176 174 172 172 174 174 170 174 174 174 170 167 167 163 161 159 155 151 151 153 153 151 153 153 151 149 145 143 143 143 147 147 149 153 153 151 147 143 141 139 135 131 129 133 133 135 131 129 125 121 123 125 123 125 127 127 123 119 117 117 115 115 113 113 115 119 115 113 113 115 111 111 111 107 103 99 99 99 95 93 89 87 85 87 85 82 80 78 78 82 78 80 82 87 89 91 89 87 87 87 91 93 97 101 103 103 101 105 109 105 103 105 107 107 111 115 117 121 123 127 131 135 139 141 145 145 141 143 139 135 135 137 135 137 135 133 131 131 131 131 133 133 131 133 129 129 129 133 131 131 127 129 125 129 129 127 129 129 131 133 133 131 133 137 135 133 137 137 135 133 129 127 131 135 133 133 131 127 125 123 123 121 119 123 119 117 113 115 111 111 113 113 113 111 109 111 113 115 119 121 125 129 127 131 133 133 133 133 133 131 131 131 135 137 139 141 143 147 143 145 141 143 145 145 143 145 141 143 147 147 151 155 159 161 161 163 165 163 163 167 167 163 167 172 172 170 172 174 170 167 163 165 165 165 163 167 165 165 165 165 161 165 163 159 157 157 157 155 153 153 157 159 161 161 163 165 165 165 161 163 165 163 159 159 161 159 159 159 157 157 155 159 159 159 161 157 155 151 147 143 139 135 133 133 131 129 125 123 125 129 129 131 133 133 131 129 125 121 117 115 113 109 109 105 105 103 101 99 97 93 89 89 85 87 89
109 109 105 105 105 109 113 113 113 113 113 115 119 115 115 119 119 115 111 107 105 101 99 97 95 95 93 93 93 93 91 93 95 93 93 93 95 95 93 89 89 85 82 78 82 82 82 87 85 89 87 89 85 85 85 82 85 87 85 89 87 82 85 87 87 91 91 93 89 93 95 99 99 103 105 105 101 99 95 91 97 95 99 101 99 97 99 99 97 99 101 97 95 91 89 91 91 93 91 93 95 95 95 95 95 99 101 105 109 113 113 111 113 115 119 119 119 115 115 113 109 111 109 107 109 109 113 113 113 111 115 117 117 117 115 113 113 113 115 115 113 113 109 109 107 107 107 111 111 113 115 113 109 109 113 115 119 115 117 119 123 123 121 119 117 115 111 117 119 123 121 117 121 117 115 115 119 119 117 117 115 115 113 115 115 113 113 113 115 113 111 113 115 117 119 123 123 123 121 121 121 119 115 117 117 117 115 115 117 117 119 119 123 123 121 121 121 125 121 125 127 125 123 119 123 125 123 127 131 133 135 135 137 141 141 139 139 143 145 149 151 151 151 153 149 147 147 149 149 147 145 147 143 141 137 133 129 129 125 123 119 117 117 115 113 115 113 111 111 111 115 117 117 115 115 111 111 111 107 107 103 99 99 99 103 105 107 109 111 115 111 109 107 103 103 103 105 109 113 111 113 115 117 117 117 117 117 119 123 125 125 121 119 119 119 121 123 127 129 129 127 127 129 131 131 133 131 135 139 141 141 139 141 141 145 147 149 149 149 151 153 149 147 147 147 151 153 157 157 159 157 159 163 167 163 165 163 163 163 165 165 165 167 174 176 180 184 188 192 192 190 190 194 194 192 196 194 196 198 198 202 206 210 210 210 206 206 204 204 204 204 204 204 206 206 204 202 202 200 204 202 200 196 192 196 192 188 184 180 180 182 180 184 184 186 182 182 180 182 184 182 180 176 178 174 174 176 176 176 178 176 174 176 172 172 170 172 176 176 174 172 170 167 165 163 159 155 155 155 157 155 157 157 153 149 149 147 145 147 147 151 153 155 155 153 149 147 143 139 135 131 131 133 133 131 131 127 123 121 123 123 123 125 123 125 121 117 113 113 115 111 115 115 115 119 117 115 113 117 115 113 109 107 103 103 99 97 95 91 87 85 85 85 89 87 85 82 82 80 78 78 78 82 87 87 87 91 89 87 91 95 97 101 101 103 101 105 109 107 105 109 109 111 115 117 117 119 125 129 131 135 139 143 145 143 141 141 139 135 135 139 139 137 137 135 133 135 133 133 131 129 129 131 127 129 133 129 127 127 125 125 125 129 131 127 129 129 129 131 131 131 131 135 135 135 135 133 135 131 129 127 129 133 131 131 127 127 127 123 121 119 119 119 117 115 115 113 113 113 115 117 113 111 109 111 115 117 121 125 127 125 125 129 131 131 135 135 135 133 133 135 135 137 139 139 141 143 139 143 139 139 141 141 139 141 139 141 145 149 153 157 161 161 159 163 165 163 165 165 165 165 167 167 167 170 170 174 170 165 163 161 163 165 163 167 167 165 163 165 161 161 161 159 161 157 161 157 155 157 161 161 165 165 163 163 161 161 163 165 165 167 163 163 163 161 157 159 157 155 155 157 157 157 157 155 153 149 145 141 139 135 133 133 129 129 125 123 121 125 127 127 131 129 129 125 123 119 119 115 113 113 109 105 103 101 99 97 97 93 91 91 87 89 85
111 107 109 109 109 109 113 113 115 113 113 113 115 113 113 117 117 117 113 109 105 103 101 99 99 99 95 95 95 91 91 93 93 95 97 97 95 95 91 89 91 87 85 82 85 85 85 87 89 91 89 89 85 85 85 85 87 87 85 87 82 82 82 82 85 89 93 93 93 95 99 101 101 103 105 103 99 97 93 93 97 97 101 103 101 99 101 101 97 99 99 97 93 91 91 95 93 93 95 95 99 97 95 97 97 101 103 107 111 113 115 113 115 117 121 121 121 119 117 115 113 111 111 109 113 113 117 115 115 113 117 121 119 121 119 115 115 115 115 115 115 113 113 111 111 109 107 107 111 111 113 109 109 107 109 113 117 115 117 121 123 123 123 121 117 115 113 117 117 121 119 117 117 113 115 117 119 117 115 115 113 113 113 115 117 115 115 113 113 109 113 113 117 113 117 121 121 119 119 123 123 119 117 119 119 117 117 115 117 119 119 121 121 125 123 125 125 123 121 125 125 123 121 119 123 123 123 125 127 131 131 135 139 143 141 139 143 147 149 149 153 151 153 153 151 147 149 145 149 147 143 143 145 141 137 135 131 129 127 123 121 119 117 115 115 117 113 113 115 113 117 117 113 113 113 111 109 109 105 105 105 101 101 99 101 103 107 111 111 111 109 109 107 107 105 105 105 109 113 111 113 113 117 117 117 113 115 117 119 123 123 123 121 119 123 125 125 127 129 133 131 131 131 131 127 129 133 137 141 141 141 141 143 143 147 149 151 153 153 151 153 149 149 145 147 151 155 157 157 159 159 159 163 165 167 167 163 167 167 165 163 165 167 172 176 178 182 186 190 188 190 194 192 192 194 196 196 196 198 202 206 208 212 210 212 210 210 208 206 204 206 206 208 208 208 206 204 202 204 200 200 200 198 194 194 194 190 188 184 182 184 182 186 186 186 186 184 182 182 182 180 176 180 178 178 176 176 176 178 176 176 174 174 174 174 174 174 178 178 176 176 172 170 170 165 163 159 159 159 159 157 159 157 157 153 151 149 149 149 149 153 157 157 155 153 149 145 143 139 137 133 129 129 131 129 127 125 121 119 121 123 119 123 121 121 121 119 115 113 111 111 113 115 117 121 119 119 117 113 113 111 107 107 105 105 101 97 93 91 89 85 82 85 89 89 87 87 82 80 80 80 82 85 87 85 87 87 89 91 91 95 97 101 99 101 103 107 107 107 107 111 111 113 117 117 119 121 125 129 133 137 139 143 143 143 141 139 137 135 139 141 139 135 135 135 135 137 133 133 131 133 129 129 127 129 129 129 129 127 125 125 127 127 131 131 131 133 131 133 133 133 131 131 131 131 131 131 133 129 127 125 127 131 133 131 129 127 127 123 121 117 119 119 115 113 113 117 115 115 115 113 111 109 111 111 115 119 121 125 127 127 129 127 129 129 131 131 131 135 133 137 133 133 137 135 137 139 135 139 139 139 137 137 137 137 139 143 143 147 149 153 157 161 159 163 163 163 165 163 165 165 163 163 163 165 167 172 170 170 165 161 161 165 167 170 167 163 161 161 159 159 159 161 163 161 163 161 157 157 161 165 163 163 163 161 159 159 163 165 170 170 165 167 163 161 157 157 157 157 157 157 155 153 153 153 149 145 145 141 139 137 137 133 131 127 123 119 119 121 125 125 129 127 125 121 119 119 119 117 115 111 107 103 103 101 99 101 97 95 93 91 89 85 82
107 105 107 111 111 111 113 111 113 113 113 109 111 115 113 117 119 117 113 111 107 103 101 101 103 101 99 99 97 93 91 91 93 97 97 95 95 97 95 91 95 91 87 85 89 87 85 82 87 89 89 89 89 87 85 85 89 89 87 85 87 85 82 82 87 91 91 91 95 95 95 97 101 101 101 99 97 95 93 93 95 99 97 101 99 97 101 97 97 99 97 93 91 87 91 93 93 97 97 97 99 97 99 101 101 103 105 109 113 115 115 117 117 121 119 119 119 115 115 117 115 113 113 113 117 117 119 119 115 115 117 117 119 119 117 117 115 119 117 117 117 113 115 115 113 111 111 109 111 109 111 107 109 107 107 111 113 117 117 121 121 125 121 119 117 115 115 115 117 119 115 115 113 113 117 117 117 121 119 117 113 115 115 115 117 117 113 109 109 107 109 113 117 115 115 117 117 121 119 121 123 121 119 119 123 121 121 119 119 121 119 123 125 125 127 129 125 123 121 125 123 119 119 119 121 123 123 127 131 135 133 137 139 141 141 143 147 149 151 151 153 153 153 151 149 149 149 145 147 147 147 143 145 143 139 137 135 133 129 127 125 121 119 115 119 119 117 117 115 113 113 113 113 109 113 113 109 109 105 101 101 103 103 101 105 107 107 107 111 111 111 111 107 107 107 107 107 107 111 109 109 113 115 115 115 113 113 113 117 119 119 123 121 119 121 123 123 125 129 131 133 133 133 129 127 131 135 139 139 141 139 139 143 147 149 149 153 155 155 153 151 149 147 145 149 151 151 155 155 159 159 157 161 163 165 165 165 170 165 167 163 167 170 174 178 182 184 188 188 188 188 192 194 192 190 192 196 198 198 200 204 208 212 212 212 212 212 210 210 208 206 208 210 212 210 208 206 204 202 202 204 200 198 194 194 194 192 188 184 184 184 184 188 186 184 184 186 184 180 180 180 178 178 180 180 178 178 176 180 176 178 178 174 178 174 176 178 180 180 176 174 172 170 174 170 165 161 161 163 159 157 159 159 159 157 153 153 153 151 153 155 159 159 157 153 149 147 143 139 135 133 129 127 127 125 123 121 121 119 119 121 119 121 117 121 123 119 115 113 111 115 115 115 115 117 121 121 117 113 111 107 111 107 107 103 99 95 91 89 87 85 82 85 85 87 82 82 80 78 78 80 82 87 85 85 89 89 89 93 93 93 97 99 97 99 103 105 109 109 105 109 113 117 121 119 119 121 125 129 133 137 139 143 145 143 141 137 135 135 135 139 137 135 137 137 139 139 137 135 133 131 129 133 129 129 129 131 131 127 125 127 129 127 129 129 131 135 135 133 133 133 133 135 135 133 131 131 133 129 127 125 125 129 129 129 125 123 123 121 117 117 119 117 115 115 113 113 111 113 113 111 109 109 107 111 115 119 121 125 127 127 125 125 127 129 129 131 135 133 131 133 131 131 133 133 133 137 135 137 137 135 135 137 141 139 139 139 143 145 149 151 153 157 159 161 163 165 165 161 163 163 159 161 161 163 163 167 172 170 165 161 161 163 167 165 165 161 161 161 159 161 161 163 165 165 167 165 161 157 157 161 161 161 161 159 159 161 165 170 170 172 167 165 161 157 157 155 159 157 157 159 157 153 149 149 149 147 145 143 141 137 135 131 129 127 123 121 119 119 121 123 125 125 121 119 117 119 121 117 113 111 107 105 103 103 101 99 97 95 91 87 87 82 78
107 105 109 109 113 113 111 111 115 111 109 109 109 113 113 117 119 115 113 109 105 105 105 101 101 101 99 97 95 95 91 93 97 95 93 93 93 95 95 95 97 95 91 89 93 89 85 85 85 89 89 89 87 85 85 87 89 89 87 85 82 85 82 85 87 89 91 91 93 91 91 95 97 97 99 97 99 97 93 89 95 97 95 97 97 97 97 97 99 97 97 93 91 87 87 91 93 93 97 93 97 99 101 103 103 107 107 107 111 113 117 115 119 119 117 117 119 117 115 115 117 113 117 115 119 117 117 115 115 117 117 115 117 115 115 115 115 117 117 117 117 113 115 113 111 111 115 111 111 109 107 105 109 107 109 109 111 113 115 117 121 125 121 119 117 115 117 117 117 115 111 111 113 115 117 117 117 117 121 117 115 115 113 113 115 115 111 109 107 107 109 111 113 115 119 119 121 119 119 119 121 119 121 119 121 123 123 121 121 123 123 123 125 129 131 131 129 127 125 121 121 119 119 119 119 121 123 127 131 135 137 141 139 143 145 147 151 151 149 149 151 153 155 151 151 153 151 147 151 149 149 147 147 147 143 141 137 137 133 131 127 125 123 119 121 119 117 117 117 115 113 113 111 111 111 111 113 111 107 103 101 103 103 105 107 109 109 109 109 111 109 107 103 103 107 107 109 109 109 109 105 109 111 113 113 109 111 111 113 115 117 121 119 119 121 121 119 123 125 129 131 131 131 129 127 129 131 135 139 141 137 137 141 143 147 151 153 157 155 151 151 147 149 145 145 147 149 151 151 155 155 157 161 163 163 161 161 165 163 165 165 167 170 172 176 178 182 184 186 190 190 190 192 196 194 196 198 200 202 202 206 210 212 214 214 216 216 214 214 210 208 208 208 210 212 208 206 206 204 204 206 202 198 194 194 194 190 188 188 186 186 186 188 188 184 184 186 184 182 182 182 180 178 182 184 182 180 178 180 178 180 176 174 176 176 174 176 180 178 176 178 174 172 172 170 167 165 163 161 157 161 157 161 159 155 155 153 155 153 155 157 159 157 157 155 151 147 143 139 137 133 129 125 123 123 125 125 123 121 119 123 121 119 119 121 121 117 115 111 109 111 111 111 113 115 117 117 113 113 111 107 107 107 105 103 101 97 93 89 87 82 82 82 82 85 82 82 82 82 80 82 87 89 85 85 85 85 89 93 95 93 97 99 95 97 99 103 107 105 105 109 111 115 117 119 119 123 127 131 135 137 141 145 143 141 137 135 133 137 135 137 137 137 139 141 143 143 141 139 137 135 133 133 133 131 129 133 133 131 127 127 127 129 129 133 131 133 137 133 133 135 135 137 139 135 133 133 137 133 129 129 129 127 125 127 123 121 121 121 117 117 115 115 113 113 111 111 109 109 109 109 107 111 109 113 113 117 121 125 129 129 127 129 127 129 127 127 131 129 129 131 135 135 135 133 133 135 135 137 137 137 137 141 137 135 135 139 143 145 149 153 157 161 157 157 159 163 161 161 159 159 157 157 159 159 163 165 170 165 165 163 163 163 163 167 165 163 161 157 159 159 161 161 161 165 167 165 163 159 159 159 157 161 157 159 161 165 165 170 172 167 163 161 159 155 153 151 157 153 155 155 153 151 147 147 147 145 143 141 141 139 135 131 127 125 123 125 121 117 117 121 123 121 121 119 117 119 117 115 115 111 109 105 107 103 99 99 101 97 93 89 87 82 78
103 105 105 105 109 109 109 109 111 113 113 113 113 113 113 115 115 111 111 111 107 109 105 101 101 103 99 99 99 99 95 93 95 93 91 89 91 95 93 95 95 93 91 91 89 89 87 85 87 89 85 87 89 85 85 89 91 87 89 85 82 80 82 82 87 89 89 87 89 89 89 91 93 95 99 97 97 93 93 91 93 93 93 97 99 97 101 99 99 101 97 95 91 87 89 93 93 97 93 93 97 101 103 103 107 111 109 109 113 113 117 113 117 115 119 117 119 117 117 113 113 113 115 117 117 113 117 117 119 117 117 115 115 117 115 119 119 119 119 115 115 111 113 113 111 111 115 113 109 107 103 105 107 109 109 107 111 109 113 117 119 123 123 121 119 115 115 117 115 115 115 113 113 113 117 115 115 119 117 119 117 119 115 113 115 117 113 109 109 107 111 113 117 119 119 121 119 123 121 117 121 119 119 115 121 119 119 123 125 127 127 125 129 129 133 131 129 125 123 121 121 121 121 121 123 123 127 131 133 137 139 141 141 143 147 149 153 149 149 147 151 153 155 151 151 153 151 149 151 149 151 149 147 145 143 145 141 141 137 135 131 129 127 123 125 121 121 119 117 115 113 113 111 115 113 111 109 109 107 105 105 107 105 109 109 109 109 107 107 109 107 105 105 107 109 111 111 109 107 105 103 107 109 109 109 107 109 111 111 115 117 121 121 119 121 119 119 121 123 125 127 129 129 129 131 129 133 135 139 141 139 139 139 143 147 151 153 157 155 153 149 147 147 147 145 145 147 147 151 151 153 155 157 159 161 159 161 163 163 165 167 170 170 174 178 176 180 182 184 186 190 188 190 192 190 196 198 202 206 204 206 210 210 214 216 220 220 218 216 214 212 212 212 212 212 210 210 206 206 206 204 200 198 194 198 196 192 192 192 190 188 188 186 184 180 182 186 186 184 182 184 180 180 184 184 184 182 180 180 178 176 174 178 174 176 174 176 178 180 180 180 176 174 172 172 167 165 163 161 157 157 157 157 159 159 159 157 159 157 157 157 157 157 155 155 153 149 145 143 139 135 131 127 123 123 123 127 127 125 121 123 121 121 121 123 119 115 113 111 109 109 107 109 111 111 113 113 109 111 111 109 107 103 109 107 103 101 97 93 89 87 85 85 85 87 85 80 80 80 82 85 85 87 89 85 87 87 89 91 95 97 99 99 95 99 99 103 107 107 107 109 113 113 115 115 119 123 127 129 133 137 139 143 143 141 137 137 133 137 135 135 139 139 141 143 145 147 143 141 139 139 135 135 131 129 127 129 129 131 129 125 123 127 129 131 131 135 139 135 133 135 139 139 139 137 137 135 137 133 131 131 129 129 125 125 121 119 119 119 117 117 113 115 111 111 109 109 107 107 107 105 107 111 111 115 113 117 119 123 127 127 127 129 129 129 131 131 133 131 131 133 137 137 137 137 137 133 133 137 139 139 141 143 139 135 135 139 143 147 151 151 155 159 157 161 159 161 163 161 157 155 153 155 157 161 163 163 165 165 167 165 165 167 167 167 165 161 157 157 159 161 165 165 161 161 163 167 163 161 161 159 157 157 155 159 161 165 167 170 165 163 159 157 155 153 153 153 153 151 151 151 153 151 149 149 149 145 141 143 139 137 135 131 127 125 125 121 123 119 117 117 119 119 117 117 115 119 115 113 113 111 109 109 109 107 103 101 101 99 95 91 87 87 82
105 101 101 103 105 107 107 107 109 111 113 111 111 111 109 111 111 107 107 107 105 105 103 103 101 103 103 99 99 101 97 95 93 91 89 87 89 91 89 93 95 91 91 91 89 91 89 87 87 89 87 89 89 85 89 91 89 85 89 85 80 78 80 80 85 87 85 85 87 85 85 87 91 93 97 97 95 93 91 91 91 91 93 97 99 97 97 101 99 99 97 97 93 91 91 93 95 93 97 97 97 97 101 101 103 107 107 111 111 113 113 113 113 115 119 119 119 121 119 117 115 113 117 119 115 115 115 117 117 121 117 115 119 119 119 123 123 121 119 115 111 111 109 111 113 115 117 115 111 107 103 105 107 105 107 103 107 107 109 113 117 119 123 121 119 119 119 117 117 117 117 115 113 113 115 111 113 115 115 117 113 115 111 111 113 113 113 109 107 105 107 109 113 115 119 119 119 121 119 117 121 119 119 117 117 119 123 125 129 131 129 127 131 129 133 131 127 125 121 123 121 123 125 123 125 127 129 133 137 141 143 143 141 143 147 149 151 149 147 147 149 153 157 153 151 151 149 149 149 153 151 149 145 145 141 141 145 143 139 137 135 133 129 127 127 123 123 121 117 115 111 111 111 111 111 107 111 107 105 105 107 107 109 111 111 107 107 103 105 105 107 105 109 107 111 115 113 109 107 103 101 103 105 105 107 107 107 109 113 117 119 119 119 121 121 121 121 123 121 121 125 125 125 127 129 133 135 139 143 139 139 137 137 141 145 147 151 153 153 153 149 147 145 143 143 145 149 151 153 153 155 155 155 155 157 159 163 165 165 167 165 170 172 176 176 176 178 178 180 184 186 184 188 192 192 196 200 202 206 208 208 206 208 210 214 218 220 220 218 216 216 212 214 216 216 212 212 208 208 208 204 200 196 196 200 196 196 194 190 190 192 192 188 184 180 180 184 188 188 184 182 180 180 182 182 182 180 180 180 180 176 174 174 174 176 178 178 182 184 182 180 178 176 172 170 167 163 163 161 161 157 159 157 157 157 157 159 161 157 157 157 155 153 151 153 151 149 147 143 139 137 133 129 127 123 125 129 127 127 123 121 121 125 123 121 119 115 115 113 111 109 111 111 109 111 109 109 107 109 109 105 105 105 105 105 105 103 99 95 91 87 87 87 89 85 80 80 82 85 85 89 89 89 87 85 85 89 89 93 97 101 101 103 99 103 101 103 103 107 109 105 109 109 111 113 117 121 125 127 131 135 139 139 139 141 139 137 137 137 135 133 137 137 139 143 147 147 143 143 143 141 137 135 131 129 127 127 127 129 127 123 123 127 129 131 133 137 135 133 135 137 139 141 139 137 139 139 135 133 129 129 127 127 127 123 119 115 115 115 115 115 113 113 111 109 109 111 109 105 105 105 107 111 111 115 115 117 121 123 125 127 127 129 133 131 133 135 135 131 131 133 137 139 141 141 137 133 135 137 141 143 145 145 141 137 137 137 141 145 147 149 153 155 155 157 159 163 165 161 157 155 153 157 157 159 159 163 163 167 170 167 167 165 163 165 161 159 155 157 157 161 165 165 165 163 165 167 163 163 159 157 155 157 153 155 159 163 167 165 161 157 155 153 151 151 151 153 153 151 147 147 149 149 149 147 145 141 139 141 139 137 133 129 125 125 121 119 119 117 115 113 117 117 117 117 115 119 117 113 111 113 109 107 107 111 107 103 101 97 93 91 87 87 85
103 99 99 103 105 103 103 107 111 113 111 109 109 107 105 107 107 105 105 103 101 103 105 103 105 103 101 101 101 97 97 93 91 91 89 87 89 89 89 91 95 93 91 93 89 93 91 91 87 91 89 87 85 85 85 87 87 85 85 82 78 76 76 76 80 85 82 87 85 80 80 82 87 91 93 97 95 91 89 89 91 89 93 97 97 95 97 97 97 97 95 95 97 95 93 89 95 93 97 99 99 97 101 101 101 103 107 111 113 117 117 113 111 115 119 121 121 123 119 117 115 113 115 119 115 115 119 115 119 121 119 115 115 119 121 123 125 123 121 119 115 111 113 113 113 117 115 113 109 105 103 101 105 103 105 105 105 107 107 111 113 115 119 119 117 119 121 117 117 119 121 117 115 113 111 109 111 113 111 115 111 115 111 113 111 111 109 105 103 103 105 107 111 113 115 117 119 121 123 119 123 121 119 117 119 119 123 127 129 129 129 127 129 127 129 127 125 123 121 119 123 121 123 119 123 127 131 135 139 141 145 147 145 147 149 153 149 147 145 147 151 153 157 155 151 149 147 147 147 151 149 145 145 145 145 143 145 141 139 135 135 135 131 129 125 127 123 123 119 115 113 111 113 111 109 107 111 107 107 107 109 109 109 111 109 105 103 101 105 107 109 107 105 109 111 115 111 107 107 103 101 103 101 101 105 107 109 113 113 117 119 115 115 119 121 123 121 121 119 117 121 121 123 127 129 133 135 139 139 143 141 141 141 141 143 147 149 151 151 149 149 147 145 143 145 147 151 155 155 157 157 153 153 153 155 157 161 163 163 165 165 167 167 172 174 172 176 176 180 182 186 186 190 194 194 192 198 202 202 204 206 204 204 208 212 214 218 222 220 216 216 212 214 212 216 214 214 212 208 206 204 202 198 200 198 198 198 194 194 194 196 192 190 186 182 182 184 186 186 184 182 182 180 180 178 182 180 180 180 180 176 172 174 174 174 176 180 184 184 182 180 178 176 174 172 167 163 161 161 163 159 161 159 159 157 155 157 157 155 155 153 151 151 149 153 153 149 145 143 139 137 133 131 127 127 127 127 129 125 123 121 123 123 123 119 117 115 111 113 115 111 113 111 109 109 107 105 107 105 105 105 105 105 105 109 105 103 99 95 91 87 85 87 89 85 82 85 85 87 89 91 93 89 85 85 85 85 89 91 93 97 99 101 103 103 101 101 101 103 105 105 109 109 111 113 117 121 123 127 131 133 137 139 137 137 137 139 139 135 131 131 135 135 137 141 143 147 143 147 143 143 139 135 131 129 125 123 123 127 127 125 123 125 129 131 135 137 137 133 135 133 137 141 139 137 137 135 131 129 125 125 125 125 127 123 119 117 113 113 115 115 117 113 113 111 107 109 105 105 107 109 109 113 113 115 117 121 123 127 127 131 127 131 135 133 137 133 131 135 131 135 139 143 143 141 139 137 137 139 143 147 149 145 143 139 139 139 143 147 151 151 151 155 155 157 155 159 163 159 157 155 153 155 153 157 157 159 163 165 167 167 165 163 161 161 159 155 151 153 157 159 163 165 167 163 161 163 167 165 161 157 155 155 153 157 157 161 163 161 159 155 151 149 147 149 149 151 149 149 145 145 145 145 145 145 141 139 135 137 137 133 131 129 125 121 117 115 117 117 117 113 115 115 113 113 115 117 115 111 107 109 105 103 105 109 109 105 101 99 95 91 89 87 85
