89 89 91 96 98 98 96 98 96 96 96 94 96 100 100 98 100 102 98 98 100 102 106 106 108 110 112 110 114 112 108 108 112 112 114 114 117 121 119 117 114 112 112 108 104 104 102 100 96 91 89 89 89 87 89 94 96 98 100 100 104 104 106 104 102 104 102 98 94 91 89 91 91 91 91 94 91 91 91 87 87 87 89 91 91 89 87 87 83 87 87 89 89 89 91 87 87 85 83 89 91 89 91 96 100 104 108 110 108 110 112 117 117 121 117 117 112 110 108 112 110 106 108 110 106 110 108 110 110 114 114 119 121 117 117 117 114 114 114 117 114 112 110 108 108 108 106 104 104 108 104 100 98 94 91 94 94 96 96 96 98 102 100 96 94 89 87 85 87 87 87 91 89 91 94 96 94 91 89 89 87 85 83 81 83 85 87 87 87 83 79 77 73 73 73 73 73 75 73 75 75 77 75 73 73 75 71 68 68 73 77 81 85 87 83 87 87 85 85 87 83 83 79 79 77 81 85 85 83 85 89 91 91 91 89 94 96 94 94 89 85 89 89 87 87 87 85 87 83 79 77 77 73 75 77 79 77 75 77 77 81 83 85 85 85 89 91 96 100 102 106 106 108 110 108 110 112 108 108 106 104 104 102 98 100 100 100 98 96 96 94 89 87 87 87 85 87 87 89 91 87 85 87 87 91 87 83 83 85 87 87 89 85 87 85 87 83 79 77 73 71 66 66 66 66 66 66 68 73 75 77 79 77 75 73 68 71 71 68 71 75 77 81 77 79 77 75 71 68 64 60 62 60 56 60 58 58 56 56 52 56 54 58 56 58 56 54 58 60 62 62 58 58 56 58 54 58 60 62 64 66 71 71 75 79 83 87 85 85 89 89 94 94 96 98 102 102 100 98 94 94 98 100 102 100 102 102 102 98 96 94 89 91 94 94 96 98 100 102 102 106 108 112 117 119 121 119 123 123 125 125 127 129 131 135 135 137 140 135 133 133 129 131 129 133 131 127 125 121 125 129 127 127 131 127 127 127 127 127 129 131 127 125 121 119 114 110 108 104 102 102 98 96 96 100 100 104 102 100 96 94 94 89 87 89 89 87 87 85 85 83 85 81 79 75 71 71 66 64 64 66 64 64 64 62 62 58 60 54 52 48 43
89 91 94 98 102 102 100 102 98 94 94 96 100 102 104 102 100 98 94 96 100 104 108 110 108 112 108 108 110 110 112 108 110 110 112 114 114 119 117 117 117 112 108 106 106 108 104 102 98 94 94 94 94 91 94 98 98 102 104 104 108 106 102 100 100 102 102 102 98 94 94 94 96 94 94 96 98 96 94 91 89 91 94 96 96 94 91 87 87 89 87 91 89 91 91 87 87 87 85 89 94 91 91 94 98 102 106 108 110 112 114 114 114 119 119 119 114 110 110 112 108 106 106 110 108 108 108 108 108 112 117 117 117 112 114 117 117 117 119 114 110 112 110 108 108 106 102 106 106 104 102 100 96 94 91 94 94 94 96 100 100 100 98 98 94 91 87 89 89 87 89 91 91 94 98 98 94 94 91 89 85 83 79 83 81 83 85 83 85 81 77 73 68 68 71 75 71 71 75 77 77 79 79 75 77 75 73 68 68 71 75 77 81 85 87 89 87 87 83 83 85 81 79 77 73 77 81 81 83 87 89 89 87 89 89 91 96 91 91 89 85 87 85 85 85 87 85 83 81 77 75 73 68 73 75 79 75 73 73 75 79 81 81 81 83 87 89 91 96 100 104 106 110 112 110 112 114 112 108 104 100 102 98 100 100 100 102 100 96 96 91 91 91 89 85 85 83 85 89 94 89 89 89 91 89 89 85 85 89 91 89 91 89 89 87 85 85 81 79 77 75 71 71 71 71 71 71 68 71 71 73 77 77 75 73 73 73 71 71 73 77 79 77 75 75 77 75 73 68 66 62 58 56 56 58 62 60 60 56 52 52 52 54 54 58 54 52 56 58 62 64 62 62 58 56 56 56 60 64 68 71 75 73 75 79 83 85 89 89 91 91 91 94 94 96 100 104 100 96 91 91 94 96 98 98 100 98 98 94 94 89 87 87 91 94 96 94 98 98 100 104 108 112 117 119 123 121 125 127 127 127 129 129 131 135 140 140 137 133 129 131 133 133 129 129 129 127 125 123 127 127 127 127 129 127 131 127 129 127 127 127 123 121 121 117 112 110 108 106 102 100 96 96 94 98 100 104 102 98 94 91 94 89 87 87 89 87 87 85 85 83 87 83 79 75 73 68 64 60 64 68 68 66 64 60 58 54 56 52 50 45 41
89 94 96 98 98 98 100 100 96 94 96 98 102 106 106 102 100 96 96 100 102 106 110 110 108 110 108 110 114 112 114 112 112 114 114 117 114 117 112 114 117 117 112 108 108 108 108 104 100 98 96 98 98 94 96 100 96 100 102 106 108 104 102 104 100 102 104 104 102 98 96 96 98 98 98 100 100 98 98 98 94 96 100 100 98 98 94 91 89 89 91 94 91 94 94 91 87 85 85 87 91 87 91 96 100 102 106 110 112 114 119 117 117 121 121 117 114 112 114 110 108 106 110 112 110 110 112 110 110 112 114 112 112 110 110 112 114 112 114 112 108 110 110 108 106 104 102 102 102 104 102 98 94 91 91 94 98 96 98 100 98 96 96 96 91 87 85 85 89 89 89 87 89 91 94 98 96 96 94 89 85 81 81 85 81 83 83 83 81 77 75 71 66 66 66 71 75 75 77 79 77 77 77 75 73 77 73 68 68 73 75 79 81 81 83 85 85 87 87 85 83 79 77 73 71 75 79 79 83 87 91 87 85 89 91 89 94 96 94 89 87 87 87 83 83 87 85 81 77 73 75 73 71 73 75 75 73 73 75 77 77 79 79 77 81 85 89 91 96 100 102 104 106 110 114 114 114 110 106 104 100 100 96 96 96 98 100 102 100 96 96 96 94 91 89 85 85 87 89 91 91 91 91 94 91 91 89 89 91 94 89 89 87 87 85 83 83 83 83 81 77 75 75 73 75 73 75 71 68 66 71 73 73 75 77 75 73 73 71 73 75 79 77 75 75 75 73 73 71 66 64 60 56 58 60 64 62 58 56 54 52 56 58 56 56 52 52 54 58 62 66 64 64 60 56 56 60 62 66 71 75 77 77 75 77 79 83 87 91 94 91 94 94 96 100 102 102 98 96 91 87 91 96 98 94 98 96 94 91 89 87 85 83 89 91 91 94 96 100 100 104 108 110 114 117 121 121 121 125 123 127 129 129 133 135 137 135 133 129 131 133 135 135 131 131 131 127 125 123 127 127 125 125 127 129 129 131 129 129 125 125 121 119 117 114 114 110 106 104 102 100 98 94 89 94 98 100 98 98 96 91 91 91 87 91 91 89 89 85 87 85 87 83 79 75 73 68 64 62 64 68 68 64 62 58 54 50 52 50 48 43 39
89 91 96 100 102 100 100 102 98 96 100 100 102 104 104 100 98 96 98 102 106 108 110 106 106 106 110 114 117 114 119 114 114 117 117 117 117 114 110 110 114 117 117 112 112 108 106 102 98 98 98 100 100 98 98 96 94 96 100 104 104 102 100 102 100 102 100 104 100 98 96 100 102 102 102 104 104 102 102 102 98 100 102 104 102 100 98 94 89 94 96 98 96 98 98 94 89 87 85 85 87 87 89 94 96 100 104 108 112 114 114 112 117 119 119 114 112 112 112 108 108 110 114 114 112 114 114 110 106 108 112 108 108 106 106 108 110 108 110 112 108 108 106 106 104 102 100 102 102 102 98 96 91 87 89 91 96 98 96 96 94 94 94 94 89 87 89 85 87 89 87 87 91 91 96 100 96 94 91 91 87 85 83 81 81 81 81 81 79 75 71 66 66 66 66 71 75 79 81 81 79 79 77 77 75 77 75 71 71 71 75 77 79 79 79 81 81 83 83 83 81 79 75 73 68 73 75 77 79 83 87 83 81 85 89 89 91 96 94 91 91 87 85 81 81 83 83 79 75 73 75 71 71 73 73 73 73 75 77 79 75 79 77 73 77 81 85 89 94 96 100 104 104 106 110 112 114 110 106 102 100 96 91 94 96 98 102 104 102 100 100 100 98 96 91 87 87 91 89 89 87 87 87 91 91 91 89 89 91 91 89 87 83 83 83 79 83 85 83 83 81 79 79 77 75 77 77 75 71 68 68 73 71 73 75 73 68 73 71 73 75 77 75 75 75 75 75 71 68 64 62 60 60 60 64 66 64 62 58 56 56 58 56 54 54 56 54 56 60 62 64 62 60 62 58 58 62 66 71 75 77 77 81 77 77 81 83 87 91 96 91 96 96 98 102 106 102 98 94 89 87 89 91 94 94 96 94 89 89 89 89 87 85 87 89 89 94 96 98 100 102 106 110 112 117 119 123 125 123 123 127 127 125 129 133 135 131 129 125 129 129 133 131 129 129 127 125 125 127 129 129 127 125 127 131 127 127 129 127 123 121 117 114 112 112 114 110 106 104 102 98 96 91 89 94 96 98 96 96 91 91 91 94 89 91 94 91 89 87 87 87 83 83 79 75 73 68 64 62 64 66 66 62 60 56 52 48 50 45 45 41 37
89 91 94 98 102 102 102 104 102 98 102 104 106 104 104 100 98 100 100 104 106 110 108 108 110 108 112 114 119 119 119 119 119 117 121 117 119 114 114 114 117 119 119 114 114 112 108 106 102 98 100 100 96 102 98 94 91 96 98 102 102 102 100 104 102 100 100 100 102 102 100 102 104 106 106 108 108 104 106 106 102 104 106 108 106 102 100 96 94 96 100 100 100 100 98 98 94 91 87 87 91 89 91 96 98 102 106 108 108 110 112 112 114 119 117 114 110 112 112 108 110 112 117 114 117 114 112 108 104 106 108 104 104 104 102 106 106 106 106 108 106 104 102 102 102 102 100 102 102 104 102 98 94 89 91 94 98 100 96 94 89 91 96 96 91 89 89 85 87 91 91 91 94 94 96 98 94 94 89 87 91 87 83 83 83 81 79 79 75 71 66 64 68 68 71 75 77 81 85 83 83 83 81 79 77 75 75 73 73 75 77 77 77 79 81 79 77 81 79 81 79 75 73 71 68 68 71 73 77 81 83 81 81 81 85 89 94 96 96 94 91 91 89 85 85 83 79 77 73 75 75 71 75 73 71 73 73 75 77 77 73 75 73 68 77 81 85 87 91 96 100 102 102 106 108 110 112 108 104 100 96 94 94 96 98 100 102 106 102 102 104 102 102 98 96 91 89 89 87 87 85 85 87 91 94 94 91 89 91 89 89 85 83 83 81 79 81 83 87 85 85 83 81 77 77 81 77 77 73 71 71 71 71 75 75 71 71 71 73 75 75 79 75 77 77 75 71 68 68 64 62 64 62 62 64 66 64 62 60 58 60 60 56 54 56 60 56 60 62 64 66 62 60 62 62 62 66 71 75 75 77 81 83 79 81 83 79 85 87 91 96 98 98 100 104 104 102 98 94 89 89 89 94 98 98 98 96 94 91 91 91 91 89 91 89 89 94 96 98 100 104 108 108 110 114 117 121 123 127 127 125 127 125 129 129 131 127 127 127 127 127 131 129 129 129 125 125 127 129 131 129 129 127 129 127 125 125 125 125 121 119 114 110 108 112 114 110 108 104 100 98 94 91 91 94 98 94 94 91 91 94 91 91 91 94 96 94 91 87 87 83 81 81 79 75 71 66 64 62 64 62 64 60 56 54 50 45 45 43 41 39 37
91 94 96 98 98 100 104 104 104 100 104 106 104 102 102 102 98 102 102 104 106 110 110 110 114 110 112 114 117 117 114 119 121 119 119 119 121 119 119 119 121 123 123 119 119 117 112 110 106 102 102 100 98 102 98 96 91 96 98 100 102 104 104 104 102 102 98 98 100 102 104 106 108 108 108 112 112 108 108 108 106 106 110 110 108 106 102 98 94 98 100 98 96 102 102 102 98 96 91 91 91 91 96 100 102 102 106 106 106 106 108 108 110 114 114 112 112 114 112 112 112 114 117 117 119 114 110 108 104 102 104 102 100 104 102 106 104 102 104 104 104 100 100 98 100 102 100 104 104 102 98 94 94 94 94 98 102 100 98 94 91 96 100 98 96 94 91 89 91 94 96 94 89 94 94 94 91 89 89 85 89 89 87 85 85 85 81 77 73 71 66 64 68 71 71 75 77 81 85 87 83 85 85 81 77 77 77 77 77 77 77 79 81 83 79 75 73 77 77 77 75 75 73 73 68 73 71 68 75 77 81 77 77 77 81 85 89 94 94 96 94 94 91 89 85 81 79 75 73 75 73 71 71 73 71 75 71 73 75 75 71 73 71 71 77 81 85 89 94 96 100 102 100 104 106 108 108 106 104 102 100 96 96 98 100 102 104 104 104 104 108 106 106 102 98 94 91 89 87 87 87 85 89 91 94 91 87 87 89 87 87 85 85 83 81 81 77 81 85 87 87 83 81 77 77 77 75 77 73 73 71 73 75 73 73 73 73 75 73 77 75 79 75 79 79 77 73 68 64 64 62 64 66 64 62 64 62 62 62 60 62 58 54 56 60 62 58 62 58 60 62 64 62 64 62 66 68 68 71 75 79 81 79 79 81 81 81 83 85 89 91 96 100 102 106 102 98 94 91 87 87 87 91 96 100 100 98 96 94 89 91 94 91 94 91 91 94 94 98 102 104 106 106 108 112 114 119 123 125 127 125 125 129 131 129 129 125 127 127 129 129 131 129 129 127 123 127 127 129 129 129 127 123 125 125 123 123 121 121 121 119 114 110 110 112 110 108 106 102 98 98 94 91 96 98 96 96 94 91 94 89 87 87 89 89 91 91 87 87 83 79 79 77 75 71 68 64 64 62 62 60 60 58 54 50 48 45 45 45 41 39 39
96 96 98 100 100 100 104 106 108 104 108 104 100 98 98 102 98 102 104 104 106 108 112 108 112 112 114 119 121 117 117 119 121 121 121 119 119 121 121 123 123 125 127 123 123 121 117 112 110 106 106 104 102 100 98 96 96 100 100 102 104 100 106 106 104 100 98 100 102 104 106 108 108 106 108 112 117 112 112 112 110 110 114 112 110 106 102 100 96 100 102 98 98 102 104 102 98 100 96 94 96 96 100 104 106 106 108 104 102 102 106 108 108 110 110 112 112 114 112 114 114 119 119 117 114 110 106 106 102 102 102 100 100 102 102 106 102 102 102 104 102 98 96 94 98 102 102 100 100 98 96 94 96 96 98 100 100 102 100 98 94 98 102 102 98 94 96 91 94 96 98 94 91 96 91 89 89 87 87 85 87 91 89 87 89 85 81 77 73 71 66 64 66 68 73 77 81 85 87 89 87 89 87 85 81 77 79 81 81 79 77 75 79 79 75 73 71 73 73 75 71 73 73 71 71 73 73 71 71 73 77 75 77 79 81 83 85 89 94 94 91 91 89 87 85 81 81 77 73 73 71 71 66 71 73 71 68 71 71 71 71 73 71 73 79 83 85 89 94 98 96 100 98 102 104 104 104 102 106 106 104 100 98 98 100 102 102 104 106 108 110 110 108 104 100 96 94 91 89 87 85 85 87 89 91 89 87 87 89 87 89 85 83 83 81 79 77 79 81 85 85 87 83 81 77 79 75 79 77 75 73 75 77 73 75 75 75 79 77 81 77 77 77 77 75 75 71 71 66 68 66 62 62 60 58 60 58 60 62 60 60 58 54 52 56 60 58 58 58 60 62 62 62 64 66 68 73 68 71 75 77 79 75 75 79 79 83 83 87 89 91 94 98 102 102 98 94 91 91 87 87 87 91 96 98 98 96 96 94 89 91 94 94 98 94 91 96 98 100 102 102 104 106 106 110 114 117 119 121 125 121 123 127 125 125 125 121 123 125 127 129 131 131 127 123 123 123 125 127 125 127 123 119 123 125 123 123 121 121 119 114 112 112 110 112 108 106 104 102 100 100 96 94 94 98 96 100 98 94 89 87 85 83 85 85 89 89 85 83 81 77 77 73 71 66 64 62 60 62 60 56 58 60 58 54 50 48 48 45 41 39 37
100 98 98 100 102 102 104 106 110 108 108 106 104 100 98 100 100 102 106 108 108 112 110 108 110 114 117 121 121 119 117 121 123 125 125 121 119 121 125 125 127 127 129 125 123 121 121 117 112 108 106 102 98 102 100 100 100 102 102 104 102 102 104 106 104 102 98 100 100 102 102 104 104 102 106 110 112 114 117 117 114 114 112 108 106 104 106 104 100 100 98 98 100 102 104 102 98 102 100 98 100 100 104 106 110 108 106 102 98 100 104 108 106 106 106 110 112 112 117 119 117 121 119 114 110 106 104 102 98 102 98 98 96 98 102 102 100 104 100 100 98 94 94 94 96 100 104 104 100 100 96 98 96 100 100 102 102 102 100 98 98 100 100 100 96 94 94 96 98 100 100 98 94 94 89 87 85 85 87 87 87 89 89 87 87 85 81 77 75 75 71 68 71 73 77 81 85 89 89 94 91 91 87 87 83 81 83 85 81 79 77 77 77 77 73 71 71 73 75 73 71 71 71 68 68 73 71 71 73 71 73 75 77 81 85 81 83 87 91 91 89 87 87 85 83 81 83 79 77 73 71 68 68 68 71 68 68 73 71 71 75 75 75 73 77 81 85 87 91 96 96 98 98 100 100 102 100 100 102 102 100 98 96 98 102 104 102 102 104 108 110 114 110 106 104 100 98 94 91 87 85 87 87 91 89 87 87 89 91 91 89 85 83 85 83 81 79 79 81 81 83 83 85 83 81 81 79 83 79 77 75 77 77 77 75 73 75 79 81 83 81 77 79 77 77 73 73 73 68 68 66 62 58 56 56 56 54 58 60 60 60 58 54 54 56 56 60 58 56 58 60 60 62 66 68 73 75 73 73 75 75 79 75 77 75 79 83 85 87 89 94 96 100 100 98 96 91 94 89 89 89 89 91 96 98 96 94 91 91 89 91 96 96 94 96 96 98 102 102 104 106 104 104 106 110 112 117 119 121 121 119 121 123 121 121 121 119 121 123 125 125 127 127 123 121 123 121 121 123 121 123 123 119 123 121 121 119 119 117 114 112 108 110 110 108 106 102 102 100 96 96 94 89 94 96 96 96 96 91 87 83 81 79 81 81 85 85 83 83 79 75 73 71 66 64 66 62 60 60 58 56 60 60 56 52 48 52 52 48 43 39 37
100 100 98 102 106 104 106 108 108 108 106 104 104 102 100 104 102 106 108 112 112 114 112 110 112 117 121 123 123 119 119 121 123 123 127 123 123 125 129 129 129 127 129 125 123 121 121 117 112 110 106 102 100 100 102 102 104 106 106 104 102 102 102 104 102 100 102 100 98 98 100 102 102 102 104 108 110 114 117 119 117 114 112 108 104 100 102 104 102 98 96 96 96 100 102 100 98 102 104 102 104 104 106 102 106 106 104 102 100 102 104 106 110 108 108 112 114 117 119 119 121 119 114 110 106 104 104 100 98 102 100 98 98 102 104 102 100 100 98 96 98 94 96 98 98 100 104 102 102 104 100 102 100 104 102 102 106 102 102 100 98 100 104 100 100 96 96 98 100 102 104 100 96 94 89 89 89 85 87 89 85 87 85 85 83 83 79 75 77 79 75 73 75 77 81 85 89 94 94 96 94 89 89 91 87 83 87 87 85 83 79 79 77 77 73 73 71 73 73 71 71 68 68 71 71 73 71 75 71 68 68 73 77 81 83 81 81 83 87 89 87 83 83 83 83 83 81 81 79 77 73 71 71 71 68 66 71 73 71 73 77 79 77 77 77 77 81 85 89 94 91 94 96 96 98 98 96 96 98 98 96 94 94 98 102 104 104 106 104 108 108 110 108 106 102 100 100 98 94 89 89 89 89 91 89 89 89 94 96 94 89 89 85 85 85 85 81 81 77 79 81 85 89 87 83 83 79 81 79 79 75 77 75 75 73 71 75 77 81 83 83 81 83 79 77 75 73 71 71 68 64 62 58 54 54 58 56 56 60 60 64 60 56 56 56 60 58 56 54 56 56 56 60 64 66 71 73 75 75 73 73 77 79 77 77 81 83 87 89 91 91 94 96 100 98 96 91 91 91 91 91 91 94 98 100 96 98 96 94 89 89 94 96 94 94 98 102 106 106 104 108 108 106 110 114 114 119 121 119 117 119 117 119 119 117 117 117 119 119 121 121 123 123 121 119 119 121 119 119 119 121 119 119 119 119 119 117 117 112 112 110 108 108 108 104 106 104 106 102 98 96 91 91 91 96 98 94 91 87 83 81 77 75 77 77 81 81 83 83 81 77 73 68 64 64 64 62 62 60 60 58 60 58 56 52 48 50 50 50 48 43 39
104 102 102 106 104 104 104 104 106 106 106 106 104 104 102 104 104 106 110 114 114 119 114 112 112 117 121 123 125 121 119 117 119 121 123 127 127 127 131 129 127 127 125 125 121 119 117 117 112 108 104 100 100 104 100 102 106 108 106 106 102 102 102 106 102 100 98 98 94 96 96 98 100 102 106 110 110 114 112 114 119 114 110 106 104 104 106 104 102 100 98 94 91 96 100 100 100 104 104 106 106 104 106 104 106 108 106 102 104 104 104 106 108 110 110 114 119 121 119 119 117 117 114 110 106 102 102 102 98 98 96 96 100 100 102 102 102 98 98 94 94 94 98 98 100 104 104 104 104 108 104 106 104 106 104 104 104 104 104 102 100 102 104 102 102 100 100 102 102 104 102 100 98 94 91 94 91 87 85 85 83 83 81 83 79 79 79 79 79 83 79 77 79 81 83 87 91 96 96 94 94 91 91 94 91 87 87 85 81 81 83 79 77 77 77 77 75 77 75 75 73 73 71 71 73 73 71 75 71 71 71 73 75 77 81 79 79 83 85 85 83 81 85 87 83 85 83 83 81 79 77 75 73 68 66 66 66 71 75 77 75 75 79 79 79 81 83 85 89 89 87 91 91 91 94 94 94 94 94 94 94 91 94 98 100 104 102 102 104 104 106 108 108 104 102 98 98 96 96 94 89 87 85 89 85 89 89 94 98 96 91 87 85 81 87 83 79 83 79 83 81 83 87 87 83 81 79 79 77 77 79 79 79 77 75 71 73 77 79 83 83 85 81 79 79 79 77 73 73 71 68 64 60 56 54 58 58 60 60 60 62 64 60 58 60 62 60 58 54 56 60 56 56 60 64 66 71 71 71 68 68 73 77 79 79 81 85 89 91 94 96 96 96 96 96 98 96 94 91 94 91 91 94 96 98 98 96 98 94 94 91 96 98 96 96 98 102 104 106 104 108 110 108 112 114 117 119 119 119 117 114 112 114 114 114 112 114 117 114 117 119 119 119 117 114 114 119 119 119 119 119 123 123 121 121 121 117 114 110 110 112 110 108 106 102 102 104 106 104 100 98 94 91 89 94 94 96 89 85 83 79 75 71 75 75 79 79 83 85 83 79 75 71 66 64 66 62 64 62 62 58 60 58 54 50 50 50 52 52 48 43 41
102 104 104 102 102 102 102 104 106 108 108 108 108 104 100 100 102 106 110 114 119 121 119 114 112 114 117 121 125 121 121 117 119 123 127 129 129 131 131 127 125 127 125 123 119 114 114 112 108 108 106 102 100 100 100 102 102 106 104 104 102 102 104 102 98 98 96 94 89 94 98 96 96 100 104 106 110 110 110 110 114 112 110 106 104 106 108 106 102 98 94 94 94 98 102 98 102 104 106 108 106 106 108 106 110 110 106 106 106 104 104 104 106 108 112 117 117 117 119 114 114 114 110 110 106 102 100 98 96 94 94 96 98 98 102 104 100 98 102 98 94 98 96 96 100 104 106 104 108 112 108 108 106 108 108 108 104 108 106 104 102 104 106 106 106 102 104 100 100 102 102 102 100 96 91 94 89 87 85 83 79 79 79 81 79 83 83 83 83 85 83 81 83 83 87 89 94 96 96 98 96 96 96 98 94 91 87 83 81 81 83 79 77 77 79 81 77 81 77 77 75 75 73 73 73 75 73 73 71 75 73 75 79 79 77 79 79 83 87 83 81 81 83 85 85 85 85 81 77 77 77 77 75 73 71 66 68 71 75 79 79 77 75 77 81 83 87 87 87 87 87 87 87 87 91 89 89 94 91 89 89 89 91 96 96 100 102 102 102 102 106 104 104 104 100 100 98 100 100 96 91 87 85 85 83 85 87 89 94 94 89 87 83 83 83 81 79 81 81 81 83 83 87 83 81 79 77 75 73 77 75 75 77 75 77 73 73 77 81 85 83 81 85 81 79 81 79 75 75 71 66 62 60 56 52 56 56 56 60 62 66 64 62 62 58 62 62 60 56 60 62 60 56 56 60 62 66 66 68 64 66 68 73 75 77 81 85 89 94 96 96 98 94 94 96 98 100 96 96 91 87 89 94 94 94 94 91 96 91 91 91 96 98 98 96 96 100 102 106 106 108 112 108 110 112 117 117 119 121 119 114 110 110 110 110 110 112 112 112 112 114 117 117 112 112 112 114 117 117 119 121 125 125 123 123 123 121 117 112 110 108 108 106 104 102 102 106 106 104 100 96 91 91 89 91 89 91 87 83 79 75 73 71 71 75 77 75 79 83 85 81 79 75 71 66 62 60 62 64 64 60 62 58 54 52 50 50 50 52 48 43 39
98 102 102 100 100 100 100 102 104 104 104 104 104 100 98 98 102 106 110 112 117 121 121 119 117 117 119 119 121 119 123 121 121 125 129 129 133 133 131 127 125 125 123 121 119 119 117 112 110 112 108 104 100 102 100 104 106 104 100 104 104 102 100 100 98 96 94 91 91 91 96 91 96 100 104 106 110 112 112 110 110 114 112 108 106 106 106 102 100 100 96 94 94 94 98 96 100 102 104 106 102 106 110 106 108 108 108 108 108 104 104 104 104 108 110 112 114 117 114 110 112 110 110 108 106 102 102 98 96 98 98 96 98 102 98 100 98 98 98 100 98 100 96 98 102 106 108 108 112 114 112 112 110 110 108 108 106 108 110 106 104 108 110 110 106 104 104 102 102 104 102 102 102 98 96 91 89 85 85 81 81 79 79 79 81 85 87 87 87 89 87 85 87 87 91 91 96 100 98 102 98 98 96 98 96 91 87 83 81 83 85 81 79 81 83 85 81 81 77 75 77 79 79 79 77 79 77 73 73 77 75 79 79 77 77 79 75 81 83 81 77 79 83 83 87 87 85 81 81 79 77 77 75 75 71 68 68 73 77 79 77 79 75 73 77 81 83 85 83 83 85 83 83 85 87 87 85 89 89 87 87 89 94 96 100 104 104 106 106 102 102 104 108 104 102 102 100 104 102 98 94 89 85 83 83 83 85 89 91 96 91 87 85 87 83 81 81 83 83 85 83 87 85 81 81 79 79 75 73 73 73 73 73 75 77 75 75 79 79 83 83 81 81 79 81 83 83 79 79 73 68 64 60 56 52 54 52 54 58 62 66 62 60 58 58 60 62 60 58 62 64 58 56 58 60 64 66 68 66 64 64 66 68 73 75 79 81 85 89 94 94 94 91 94 96 100 96 98 94 89 87 85 89 94 94 94 91 94 91 94 94 98 98 100 98 98 98 100 104 108 110 108 108 110 110 112 114 119 119 117 112 110 106 106 106 108 110 110 110 110 110 112 112 112 112 114 112 112 117 119 123 125 127 125 125 121 117 112 108 108 104 106 106 104 104 104 104 104 100 98 96 91 89 87 87 87 87 83 79 77 73 66 68 71 75 79 77 77 81 83 83 79 75 73 68 64 60 62 62 64 62 60 58 54 56 54 50 50 50 45 43 41
98 98 100 98 96 96 96 100 100 102 102 100 102 98 94 96 100 104 110 112 117 121 121 121 119 121 121 117 117 119 121 121 119 123 125 125 129 133 133 129 127 125 125 121 119 117 112 117 114 114 110 106 104 104 102 104 108 104 102 104 106 106 104 102 98 100 98 94 94 94 94 94 98 102 106 110 112 114 117 112 112 114 114 110 108 104 102 100 96 98 96 96 96 94 94 96 100 102 106 102 102 104 108 110 110 108 110 110 106 108 108 106 104 106 108 110 114 114 112 108 110 110 108 106 106 106 104 100 100 102 100 96 96 98 98 98 100 102 100 102 100 98 98 102 106 110 110 112 114 119 117 117 114 112 110 112 110 112 112 110 108 112 112 110 108 106 106 106 106 108 106 104 104 102 98 94 91 87 87 85 85 81 81 83 85 89 91 91 91 94 91 91 91 91 96 96 100 102 100 102 98 98 100 98 94 89 87 85 85 87 83 81 81 85 83 85 81 83 79 79 79 83 83 83 81 85 81 79 77 79 79 81 79 79 77 77 77 79 83 81 79 81 83 85 85 85 83 79 83 83 79 81 77 73 68 71 68 71 73 77 77 75 73 71 73 77 81 81 79 79 83 81 85 85 85 85 81 85 89 87 89 91 96 100 104 106 108 110 108 104 104 108 110 108 104 102 102 100 102 98 94 91 87 85 87 85 85 89 94 94 89 89 87 89 85 81 81 83 87 87 85 85 83 81 83 83 79 79 75 75 73 77 77 79 79 77 75 77 79 83 87 83 81 79 77 81 83 79 75 71 66 62 58 54 52 52 52 52 54 58 62 62 62 58 56 56 60 62 58 62 60 58 56 58 60 64 68 68 68 64 66 62 68 68 71 75 79 83 87 89 89 94 91 91 94 96 91 94 89 87 83 83 87 89 91 94 94 96 94 94 98 100 102 104 100 100 98 102 106 110 110 108 106 108 108 108 112 114 117 114 112 108 104 102 102 106 106 106 108 110 108 112 117 117 117 117 114 114 119 121 125 129 131 129 125 121 117 112 108 104 102 104 106 102 100 102 104 100 100 100 98 94 91 87 85 85 83 83 79 75 73 68 71 73 77 81 81 77 81 81 83 81 77 73 68 66 64 64 62 64 60 60 60 58 58 56 54 50 48 45 43 43
94 94 96 94 91 94 94 96 100 102 100 98 98 98 98 98 100 106 110 112 117 121 125 125 123 123 121 119 119 119 117 121 119 123 125 123 127 129 131 129 127 125 123 119 117 114 114 114 114 117 112 108 106 104 104 108 108 104 102 104 106 108 106 104 100 104 100 96 96 98 94 96 100 104 106 110 114 117 112 112 114 112 112 110 108 104 100 96 96 98 100 98 98 98 94 98 100 102 106 104 104 106 108 110 112 110 112 108 104 104 106 106 108 110 110 112 112 110 108 108 110 110 106 106 106 104 104 102 104 102 104 100 96 94 96 100 100 102 100 102 100 98 102 106 110 112 114 114 114 119 119 117 119 117 114 114 114 114 112 114 110 110 110 112 108 108 108 108 108 110 108 108 104 102 98 98 94 91 91 89 89 87 85 87 89 91 96 96 96 98 96 96 96 96 98 100 102 104 100 104 102 100 100 98 96 91 91 87 89 87 85 83 83 87 87 87 83 83 81 83 83 87 87 87 85 87 85 83 81 79 79 79 77 77 77 79 77 77 79 81 81 85 85 89 87 83 79 79 81 79 79 79 75 73 68 73 73 75 75 75 75 71 68 68 71 75 77 77 75 77 79 81 83 87 85 83 83 83 85 87 91 94 98 102 106 110 112 112 112 108 108 110 112 110 108 104 104 100 100 98 94 91 89 87 87 87 87 91 89 94 91 91 87 89 85 83 81 83 87 87 83 83 83 83 83 83 83 79 77 75 73 77 79 83 81 79 77 79 79 81 83 83 81 81 79 79 79 75 71 66 62 58 54 52 52 54 54 52 56 60 64 64 66 62 58 58 60 60 62 64 60 56 56 58 62 66 64 66 64 62 64 64 66 71 73 77 75 81 83 87 91 96 94 91 91 91 87 91 87 83 81 83 85 89 91 96 96 98 96 98 100 102 104 104 102 104 100 100 104 106 108 106 104 106 106 108 110 114 114 112 110 106 102 98 100 102 102 104 108 108 108 110 114 119 119 121 117 117 121 123 127 131 131 129 123 119 114 110 108 104 102 106 102 102 98 98 100 98 96 96 96 96 94 89 85 87 83 79 77 73 71 68 73 75 79 83 81 81 79 79 81 81 79 75 73 71 68 68 66 66 64 62 58 60 60 58 54 52 50 45 43 48
96 91 91 89 87 89 94 96 98 98 96 94 96 100 100 98 100 104 108 112 117 121 125 127 125 123 119 119 117 114 117 119 114 121 125 123 123 127 127 127 127 125 123 119 114 112 114 110 110 114 110 106 102 108 108 108 110 106 104 104 102 108 106 104 104 104 104 100 96 96 98 98 102 104 108 108 112 112 110 110 110 110 112 108 104 102 98 94 96 96 100 98 96 98 96 96 98 100 104 106 108 108 110 114 117 112 112 108 106 102 102 106 106 110 112 112 110 108 106 110 106 110 106 108 106 108 108 106 104 104 104 102 98 94 91 96 98 100 102 100 98 102 102 104 108 110 110 110 112 117 119 119 121 121 117 114 119 117 114 110 108 112 110 110 106 106 110 110 108 108 110 108 106 102 100 98 98 96 94 94 94 91 89 91 91 96 100 100 98 100 98 100 98 100 100 102 100 100 102 104 106 102 100 100 98 94 94 89 87 87 85 83 87 91 91 87 83 85 85 85 87 91 91 94 89 91 87 87 85 81 81 79 79 79 79 77 77 81 79 79 81 85 87 87 83 79 79 81 83 79 77 75 73 71 68 71 71 73 73 71 71 71 71 71 68 73 75 73 71 73 77 81 83 83 85 83 83 81 83 87 91 98 100 104 108 112 114 112 114 112 108 112 110 106 104 102 102 102 102 100 96 94 89 89 89 89 87 87 87 89 94 91 89 89 87 83 81 85 89 89 85 85 85 85 87 83 85 81 79 77 75 79 79 81 81 79 79 79 83 83 83 83 85 85 81 81 75 73 66 64 60 56 52 48 52 56 58 56 58 62 66 68 71 66 62 60 62 60 60 60 56 56 58 60 64 62 62 62 62 62 64 66 68 73 75 79 77 81 85 87 89 94 89 89 87 87 83 87 83 81 81 81 83 87 89 94 98 100 100 102 104 106 104 108 106 102 100 96 100 104 104 104 104 106 102 104 106 110 110 108 108 108 104 100 104 104 104 106 110 110 110 112 117 121 119 119 119 119 123 127 127 127 129 125 121 117 112 108 106 102 102 104 104 102 98 98 98 98 98 98 96 96 91 89 85 85 81 77 73 68 66 68 73 77 79 83 83 79 75 75 77 77 75 73 71 73 71 73 68 66 62 58 54 56 56 54 52 50 45 43 45 45
89 87 87 87 85 87 91 94 96 96 91 91 94 98 100 96 98 102 106 108 112 117 121 125 123 121 117 121 117 114 112 119 117 119 121 123 123 125 125 127 125 123 119 117 112 110 110 108 108 110 106 104 104 106 110 110 110 108 104 104 104 104 106 106 104 106 106 102 98 98 98 100 104 108 104 104 108 108 106 108 106 108 108 104 102 98 96 94 91 96 96 94 91 96 96 98 100 102 106 110 110 112 114 117 119 114 112 108 104 102 100 104 106 110 112 110 108 108 106 108 106 108 108 108 108 108 106 106 104 108 104 100 98 94 94 96 94 96 98 98 96 100 102 106 110 114 114 112 112 114 119 121 125 123 119 119 117 117 112 110 108 110 106 106 106 106 110 114 110 110 112 110 106 102 102 102 102 98 96 98 96 96 94 96 94 98 100 102 98 100 102 104 102 104 104 102 100 102 104 108 108 104 104 102 98 94 94 91 87 89 87 83 87 89 89 87 83 87 89 89 91 94 96 96 96 96 91 91 89 85 85 83 79 81 81 81 81 83 79 77 81 83 85 85 83 79 75 79 81 79 75 71 71 71 71 71 71 73 71 71 71 71 73 68 68 68 71 71 66 73 77 81 85 87 87 83 81 81 83 87 91 96 100 104 108 110 114 114 114 110 110 112 110 106 104 100 98 98 102 98 96 96 94 91 89 89 85 85 85 87 91 94 91 87 87 83 83 87 89 91 89 89 87 87 91 87 85 83 79 79 77 81 81 83 81 83 79 79 81 85 81 81 85 87 83 79 75 71 66 62 58 54 50 50 50 52 54 58 62 64 68 68 68 66 62 60 60 60 60 56 54 54 56 58 62 60 58 58 60 62 64 68 73 77 75 77 81 83 83 83 87 89 87 85 83 83 83 85 83 83 81 85 85 87 91 94 98 100 102 104 108 110 108 110 106 102 100 98 102 102 102 102 102 104 102 104 104 106 108 110 108 108 104 104 108 108 106 110 110 110 112 114 119 119 117 121 121 123 125 123 125 123 125 125 121 117 112 110 106 104 104 106 102 100 100 98 100 96 96 96 100 94 91 89 85 83 79 77 73 71 66 66 71 73 77 81 81 77 75 73 73 75 73 68 68 71 71 71 66 62 58 54 52 52 52 52 48 45 43 43 45 48
87 85 83 83 85 87 91 89 91 91 94 91 94 96 96 96 100 102 106 108 110 114 119 121 121 119 117 117 121 117 114 117 117 114 119 121 125 123 121 123 123 121 119 114 112 112 110 108 110 112 110 108 104 106 110 112 110 108 106 108 104 108 110 106 106 108 108 104 100 98 96 100 100 102 104 106 108 106 104 106 106 104 104 102 100 98 96 94 89 91 91 91 91 94 98 100 102 106 110 112 114 114 117 121 121 117 112 110 106 102 100 104 106 110 112 110 110 108 106 110 108 104 106 108 110 108 106 106 102 104 104 104 100 96 98 96 98 98 100 98 96 98 102 102 106 110 112 112 112 117 121 125 129 125 123 121 117 114 112 110 108 106 102 104 108 108 110 112 110 110 108 106 104 104 104 106 104 102 98 100 100 98 98 98 98 98 100 102 100 102 106 106 106 108 106 104 104 104 108 110 112 108 108 104 100 96 98 94 89 87 85 81 83 85 87 85 85 89 91 91 96 98 100 100 98 100 96 96 94 89 91 87 83 81 81 85 83 81 79 77 79 83 85 83 81 77 75 77 77 77 73 71 71 73 73 73 73 71 71 71 73 75 73 71 71 68 73 71 68 71 75 79 83 87 87 83 81 81 85 89 91 94 98 102 106 108 110 114 117 114 110 110 106 104 102 98 94 100 100 100 100 98 98 96 94 89 87 89 87 89 94 91 87 87 91 87 87 89 91 94 91 91 91 91 94 89 87 83 81 79 79 77 81 83 81 79 79 81 83 87 85 81 83 83 79 77 75 71 66 62 58 54 50 50 50 50 54 56 60 64 66 71 66 62 60 60 64 62 60 56 56 56 56 62 60 60 58 58 60 62 66 71 73 75 75 77 81 85 85 83 83 85 85 89 87 87 87 85 83 83 83 85 89 89 94 96 100 102 100 104 108 110 108 108 106 104 102 98 100 100 100 98 100 102 102 104 104 104 106 108 104 108 106 106 108 110 110 114 114 112 114 119 123 119 117 119 121 123 123 121 121 121 121 123 119 114 110 110 106 104 108 108 106 102 102 100 102 98 94 94 96 91 87 87 83 83 81 77 75 73 68 68 73 71 75 79 77 73 75 73 71 71 73 71 71 66 66 64 62 58 54 52 48 48 48 48 43 41 41 43 41 45
81 85 85 81 81 85 89 85 87 91 89 87 91 94 91 96 100 102 106 106 108 110 114 117 117 121 119 117 117 117 114 117 119 117 121 123 123 123 119 121 119 117 117 117 114 114 112 112 112 114 112 110 108 108 108 108 108 108 106 106 106 108 110 108 106 106 106 102 100 96 94 96 96 100 100 104 104 102 102 104 102 100 102 100 100 100 96 91 87 87 87 89 91 94 98 102 104 108 112 117 117 117 119 123 123 119 114 110 108 106 102 106 108 110 110 108 108 108 108 108 104 106 108 110 108 104 102 102 100 102 104 104 100 98 94 96 98 100 96 98 94 96 98 100 102 106 110 112 117 121 123 125 125 127 125 121 117 112 112 110 106 104 102 104 108 110 110 114 114 112 108 104 100 104 106 106 108 104 102 104 104 102 102 102 100 98 98 100 100 100 104 108 110 110 110 108 108 108 108 108 112 110 108 104 100 100 96 91 89 85 83 81 81 83 85 85 87 94 94 96 100 100 102 104 102 102 100 98 98 96 96 91 87 85 83 83 87 83 79 79 79 81 83 87 83 79 75 75 73 75 71 71 75 75 75 73 77 75 73 75 77 75 71 68 68 73 71 71 68 73 75 77 79 83 85 85 83 83 85 87 89 94 98 100 104 106 108 112 112 110 108 106 102 102 98 98 96 96 98 98 102 102 100 98 98 94 91 91 91 91 89 87 83 89 89 91 89 94 96 96 94 94 94 94 89 85 83 83 83 79 79 75 79 79 79 77 77 77 81 85 83 83 83 79 75 73 71 68 64 64 60 58 54 52 54 54 54 58 62 62 64 66 66 66 62 60 60 60 56 54 56 58 58 58 60 64 60 60 60 64 68 73 73 75 75 75 79 83 87 87 85 83 83 85 85 87 87 85 83 85 85 89 91 94 96 100 102 102 98 102 106 108 108 106 104 102 98 94 98 100 98 96 96 98 98 100 100 102 106 104 104 106 108 108 110 114 114 117 117 117 112 114 119 117 114 119 121 125 123 121 117 121 119 119 114 112 108 106 108 106 106 104 102 102 104 100 98 96 94 89 91 87 83 85 81 85 83 79 73 71 66 71 68 68 71 75 73 71 73 68 66 68 68 68 68 64 62 62 58 54 52 48 43 43 43 43 41 39 39 41 37 43
85 83 81 79 79 81 85 83 85 87 85 83 87 89 91 96 96 100 102 102 106 110 112 112 112 117 121 119 117 114 117 119 117 117 121 121 123 121 119 119 114 112 114 114 114 114 112 114 110 114 117 114 110 108 106 104 104 106 106 106 108 110 112 110 108 108 108 104 102 98 94 94 91 96 98 100 102 100 98 102 98 98 100 98 96 96 94 89 89 89 91 94 94 96 100 104 108 112 117 121 117 119 119 119 119 117 117 112 108 106 106 106 106 106 108 108 106 104 104 104 102 102 104 106 104 102 100 100 96 100 102 100 98 96 94 94 96 96 96 96 91 91 96 98 100 104 108 112 117 119 121 123 121 123 121 119 114 110 108 106 102 102 100 102 106 108 108 110 110 108 104 102 102 104 108 106 104 108 104 108 108 106 104 100 98 98 102 104 100 100 104 108 112 110 114 110 112 110 112 110 108 108 108 104 102 102 98 94 91 89 87 85 83 87 87 87 94 98 98 100 102 104 106 108 106 106 104 102 102 100 100 98 91 89 87 85 87 85 83 81 79 83 85 83 79 81 77 73 71 71 71 73 71 73 75 73 73 77 75 77 75 71 71 73 68 71 71 68 68 71 75 77 81 85 87 83 83 85 85 89 91 96 96 100 104 108 108 110 110 108 104 102 100 98 94 96 96 100 96 98 102 104 104 102 98 98 94 94 94 89 85 85 85 89 91 96 91 96 98 100 96 94 89 91 87 85 83 81 79 79 77 75 75 77 77 75 75 79 83 83 85 83 79 75 73 68 66 68 64 66 62 58 56 56 56 56 56 58 62 60 60 64 64 62 62 58 58 58 56 54 56 58 58 58 58 60 58 60 60 64 68 71 71 73 77 77 79 81 83 85 81 81 79 81 85 87 87 87 85 85 89 94 94 96 100 104 106 102 98 102 104 106 106 104 102 98 96 94 96 98 102 98 98 98 94 98 102 104 106 106 106 104 104 104 108 112 117 114 114 112 108 110 114 112 112 114 117 121 121 119 117 119 117 114 112 108 104 102 104 106 104 102 102 98 100 98 94 96 94 89 87 83 79 81 79 81 79 75 73 68 66 66 66 64 68 73 68 66 68 66 64 64 66 68 64 60 58 58 54 50 48 43 39 39 39 41 39 37 37 41 39 39
77 81 79 79 83 83 85 81 83 85 83 79 83 85 87 91 94 98 100 100 104 108 110 112 112 117 117 117 112 112 117 114 114 117 121 123 121 121 117 114 112 110 114 110 110 110 110 110 110 112 114 112 112 108 106 102 102 104 106 102 106 106 110 108 106 106 104 100 100 98 96 91 91 91 94 96 98 98 98 98 96 96 96 94 91 91 91 89 91 91 94 96 96 100 100 104 108 112 117 121 121 123 121 119 114 114 114 110 106 104 104 106 104 104 104 104 102 100 102 102 98 100 102 104 102 104 100 96 96 100 100 98 98 100 96 96 94 94 91 91 91 96 91 98 100 104 108 112 117 117 119 119 119 121 123 119 114 110 106 102 100 100 100 102 104 108 106 106 106 104 102 102 102 102 104 106 104 108 106 110 112 110 106 102 100 102 104 104 102 102 102 106 110 112 114 112 114 114 112 110 110 112 110 106 106 106 102 98 94 91 89 87 87 91 91 91 98 100 100 104 106 108 110 110 110 108 108 106 106 104 104 102 96 94 91 87 87 87 83 83 79 79 83 83 79 81 79 75 71 68 73 77 75 75 75 73 73 75 77 77 73 73 75 73 71 73 73 71 68 71 73 77 79 81 83 79 81 85 87 91 94 96 98 102 104 108 108 108 106 104 100 100 98 98 94 98 96 96 96 98 100 104 106 104 102 98 96 98 98 94 89 85 89 89 94 96 94 94 98 96 94 89 87 87 85 83 81 81 81 81 79 75 77 75 75 73 73 77 81 81 81 79 75 73 68 64 62 64 66 64 62 58 58 60 58 60 58 60 60 62 60 62 64 62 60 60 60 58 58 58 60 60 60 60 62 60 58 58 60 62 66 68 68 71 75 73 77 77 81 81 77 77 77 81 83 87 91 89 89 87 91 94 96 100 102 106 106 102 102 104 108 106 106 104 100 98 94 96 100 102 102 102 100 96 96 96 100 104 106 108 104 104 102 106 110 114 114 114 112 112 110 112 110 110 108 112 112 117 117 114 117 117 114 112 108 104 102 102 100 104 102 98 98 98 96 94 91 96 91 87 83 79 77 77 75 77 77 75 73 68 66 64 64 62 64 68 64 62 64 66 64 66 68 64 60 58 54 54 50 48 45 41 37 35 37 37 37 39 39 41 39 39
77 81 81 81 83 83 81 81 81 83 83 79 81 83 83 87 91 94 98 102 106 110 112 117 117 114 114 114 117 117 114 110 114 117 121 121 119 119 117 112 108 110 112 112 110 110 108 108 110 110 114 112 114 110 106 104 104 102 104 100 104 106 110 110 108 106 102 100 104 100 100 96 91 89 89 91 94 98 100 100 96 96 98 94 94 96 94 91 94 94 98 96 96 98 100 104 108 110 114 117 117 121 119 117 112 112 110 106 102 102 102 104 100 102 104 102 100 98 98 98 94 96 98 100 100 100 98 96 100 100 98 98 100 100 100 100 96 96 96 94 94 94 94 96 100 102 106 110 114 117 117 114 117 119 121 119 114 110 106 102 100 102 104 104 108 110 110 106 104 104 104 104 104 106 104 106 106 108 106 108 108 106 104 104 104 104 108 106 104 102 104 106 110 110 110 112 114 119 114 114 112 114 112 110 108 106 104 100 98 94 91 91 91 94 94 96 100 104 104 106 110 110 112 114 114 112 110 110 110 108 110 106 100 98 94 91 89 87 83 85 83 83 85 87 83 83 79 75 71 68 71 75 75 77 73 73 71 73 75 73 73 75 71 73 73 77 75 73 73 73 73 77 81 79 81 81 83 83 85 89 94 96 96 100 104 108 106 104 102 104 100 96 100 98 98 100 96 94 94 98 98 102 106 106 102 98 98 100 98 94 94 89 91 91 96 98 96 94 94 91 89 85 85 83 81 81 81 83 85 85 83 79 79 75 75 77 77 79 83 83 79 75 73 68 64 62 62 64 64 62 60 58 58 60 60 58 56 56 56 60 62 62 60 60 60 64 64 62 60 62 64 62 64 64 66 64 62 62 64 66 68 71 66 71 73 73 77 77 79 77 75 75 73 77 79 83 87 89 94 91 96 94 96 100 102 106 106 106 106 106 110 108 108 104 102 98 94 96 100 100 98 98 102 98 96 98 102 104 108 108 106 106 102 106 110 114 119 114 110 110 110 110 108 106 104 108 108 112 112 110 112 112 110 112 110 106 104 102 100 100 100 96 94 94 91 91 91 94 89 87 83 79 75 75 71 75 77 75 73 71 71 68 64 62 62 66 64 62 64 62 64 64 64 60 58 54 50 50 48 45 41 39 35 33 33 35 35 39 39 41 39 39
83 81 79 79 81 81 79 83 81 83 81 79 79 83 81 85 91 94 98 102 106 108 110 112 112 114 112 110 112 112 110 110 112 112 117 119 117 114 112 108 108 110 110 108 108 110 108 110 112 112 110 114 112 110 106 106 102 98 102 100 100 104 108 110 106 102 98 98 100 102 98 94 91 91 91 94 94 96 100 98 96 96 96 96 96 96 94 91 94 98 96 94 94 94 98 102 104 108 112 117 121 125 121 119 114 110 106 102 102 102 104 104 100 104 100 98 98 98 100 96 94 94 96 98 98 98 98 98 96 96 98 100 98 96 98 100 100 98 96 96 98 98 96 98 102 102 106 110 112 117 117 114 117 117 119 114 110 108 104 100 98 98 102 106 108 108 110 106 102 106 106 108 108 108 104 106 108 108 110 110 110 110 108 106 104 104 106 104 104 102 102 104 106 108 112 114 117 119 117 114 114 117 112 108 108 104 100 104 100 98 94 96 96 96 98 100 104 108 108 108 112 112 114 114 114 117 112 114 112 110 112 108 104 102 98 96 91 89 87 89 87 87 85 87 83 81 77 73 71 73 75 75 73 73 71 73 68 68 71 73 68 75 71 73 75 77 73 77 73 77 73 75 79 79 81 83 85 87 87 91 96 100 98 98 102 104 102 102 102 102 98 96 98 100 100 104 100 98 98 100 100 102 104 102 100 98 100 98 96 94 91 91 96 94 94 96 91 94 89 89 85 83 81 81 77 79 83 85 87 89 87 83 79 75 75 75 79 83 79 79 77 73 68 64 60 58 60 64 62 62 60 58 58 56 60 60 56 52 56 60 64 64 62 62 62 66 66 66 62 64 68 66 66 68 71 68 66 66 66 71 71 71 66 71 71 71 75 77 79 77 75 75 73 73 77 79 83 87 91 96 100 98 96 98 102 106 110 108 108 108 110 106 106 104 100 98 98 98 96 96 94 96 98 100 98 102 104 108 108 108 106 106 106 106 110 114 114 110 108 106 108 110 108 104 104 106 106 108 108 106 110 108 108 108 110 106 102 100 98 96 96 96 94 94 94 94 91 89 89 85 83 81 77 73 71 71 73 75 73 68 68 66 66 64 66 68 66 64 62 58 62 60 60 56 54 50 48 48 50 48 45 41 39 35 31 31 33 37 41 43 41 41
83 81 77 75 77 77 77 77 79 79 83 81 81 79 81 85 89 91 96 100 104 104 108 108 112 114 112 110 110 108 108 108 108 110 112 114 117 114 112 108 106 106 110 112 110 112 108 110 112 112 108 110 112 112 108 104 102 100 104 102 102 104 104 104 100 98 96 94 98 98 96 96 96 96 96 94 98 96 100 98 98 98 100 98 98 94 91 89 91 96 98 96 96 98 100 102 106 110 114 119 123 123 121 119 114 110 106 106 106 106 106 106 104 104 102 100 100 102 104 100 96 98 98 98 96 96 96 94 91 91 94 96 96 98 100 98 98 100 98 98 100 100 98 100 100 102 104 108 110 114 119 117 117 112 114 112 110 106 102 100 102 102 104 106 106 106 106 104 102 106 110 112 112 110 108 108 112 112 114 114 112 112 112 108 108 106 104 102 102 98 102 104 108 110 112 114 114 117 117 114 112 112 108 106 104 100 100 102 102 98 98 100 100 98 100 104 108 112 110 112 112 117 119 119 119 119 114 114 117 114 117 112 108 104 102 98 96 91 87 89 89 87 85 85 81 77 73 71 71 73 77 73 68 68 71 73 73 71 71 71 71 73 75 75 77 77 73 77 75 79 77 79 75 81 83 79 83 87 89 94 98 100 100 100 100 102 98 98 100 98 94 94 94 98 102 102 102 98 96 100 102 100 100 100 98 96 98 98 94 91 91 94 98 96 91 91 91 91 87 85 85 85 83 83 81 81 85 89 91 91 89 85 81 77 79 77 77 81 77 77 73 71 68 64 60 58 58 62 60 62 60 60 58 58 62 58 56 54 54 58 62 62 62 66 66 71 71 68 66 68 73 71 68 71 75 71 71 71 71 73 71 68 68 66 66 66 71 73 75 75 73 73 68 68 75 79 83 87 91 94 98 100 96 98 102 104 108 110 112 110 110 106 104 104 100 98 96 96 94 91 91 94 96 98 102 104 108 110 112 108 110 110 108 110 112 114 114 110 106 106 106 106 104 102 102 104 106 104 102 102 104 104 104 104 106 102 100 98 100 96 94 94 94 91 91 94 91 89 89 89 87 83 79 75 73 68 68 73 68 66 68 66 68 66 62 66 66 62 60 60 60 56 56 54 50 45 43 48 50 50 50 45 41 39 35 33 35 37 41 41 37 39
77 77 73 73 73 75 79 75 75 79 83 83 83 79 81 83 87 91 96 98 100 102 104 104 108 112 110 108 106 106 110 108 104 106 108 110 112 112 108 106 102 102 106 110 110 110 108 110 108 108 104 106 108 108 104 102 100 102 104 104 102 100 100 100 96 94 91 91 96 96 96 98 100 100 98 98 96 96 96 96 98 102 100 98 96 91 91 89 94 98 98 100 98 102 104 102 106 110 114 119 121 123 121 119 114 110 106 110 110 108 110 108 106 108 104 104 104 106 106 102 100 100 98 94 94 91 91 91 89 89 91 94 94 94 98 100 100 102 100 98 102 104 102 102 100 104 106 110 114 117 121 117 114 112 112 110 106 104 102 102 98 102 104 104 104 102 104 104 106 110 112 114 110 114 110 110 112 114 112 117 114 117 114 112 112 108 106 102 98 98 100 102 104 106 108 112 110 114 112 112 112 110 106 106 106 102 100 98 98 98 102 104 102 100 102 106 110 114 114 114 112 117 119 121 121 121 119 117 119 119 119 117 112 108 104 100 96 91 87 91 89 89 89 85 81 79 77 75 75 77 77 73 71 71 73 77 75 73 73 73 71 75 77 75 75 79 75 77 77 79 77 79 77 79 81 77 81 85 89 91 94 96 100 100 100 98 96 96 96 94 91 89 91 96 100 102 100 98 96 98 100 102 102 100 96 91 94 94 91 87 89 91 96 91 89 87 91 89 87 85 87 83 83 83 83 85 89 91 94 94 89 85 81 77 81 79 75 77 79 77 77 73 71 68 64 60 58 58 58 60 64 60 58 58 60 56 56 56 56 58 60 60 64 68 71 73 75 73 68 73 77 75 73 75 75 73 75 75 75 71 68 68 66 64 64 62 66 68 73 73 73 71 66 68 71 75 81 85 87 91 96 96 94 96 100 104 106 108 108 108 108 104 102 100 96 94 94 94 94 94 94 96 100 98 100 104 106 108 110 112 110 106 106 108 108 110 112 110 108 106 104 102 102 100 102 102 102 100 98 98 100 102 102 102 102 100 98 96 96 96 91 89 91 89 89 89 91 89 87 85 85 83 79 75 71 66 66 68 68 66 66 66 66 64 62 64 62 60 60 60 56 52 54 50 45 43 43 48 52 50 50 48 45 41 39 35 37 39 37 37 37 35
73 73 73 77 77 79 75 75 75 77 81 85 85 81 85 85 87 89 94 96 98 98 102 106 108 108 108 106 102 106 106 104 102 102 104 106 108 108 104 106 104 104 106 110 112 110 110 106 104 104 102 102 106 104 102 100 100 102 106 102 98 96 96 96 91 89 91 94 98 96 96 100 98 102 102 100 98 98 100 98 98 100 100 100 98 94 94 91 94 98 102 104 102 106 106 104 108 112 117 121 125 123 119 117 114 112 110 114 112 112 114 112 110 108 106 108 106 108 108 106 102 98 96 91 94 89 87 87 85 85 87 89 94 96 100 100 96 102 104 100 102 106 104 104 104 104 106 110 112 117 117 114 110 108 108 108 106 102 102 102 100 102 102 106 102 100 102 104 108 112 117 114 110 110 110 108 108 112 112 114 119 121 119 117 117 112 108 104 100 98 98 100 100 102 104 108 108 110 108 110 110 106 106 106 106 102 100 100 102 102 104 108 104 104 104 108 112 117 117 119 117 119 121 125 125 121 123 121 119 121 121 117 112 108 104 102 98 94 89 87 85 87 87 89 85 83 81 77 79 81 81 77 75 73 75 75 71 73 73 75 75 77 81 77 75 79 75 77 79 81 79 77 77 79 79 77 79 83 85 89 89 91 96 98 100 96 94 94 94 89 87 87 91 91 96 98 98 100 98 96 96 100 98 96 91 91 89 89 87 89 91 91 94 89 85 85 87 87 83 85 89 85 87 85 83 85 89 94 96 94 89 85 81 79 81 77 75 79 81 81 79 75 71 68 64 62 60 60 60 64 66 64 62 62 60 56 56 54 52 56 60 64 66 71 75 77 75 77 73 75 79 79 77 77 79 77 79 77 75 73 68 66 64 62 60 58 62 64 68 68 68 66 64 64 68 73 77 81 85 87 91 91 94 98 102 104 106 104 104 106 108 106 102 98 94 91 94 91 96 98 98 100 102 102 102 102 102 106 108 110 106 104 102 106 104 108 110 108 104 104 102 98 98 96 98 98 98 96 96 94 96 98 98 98 100 96 94 96 91 94 89 89 87 89 85 87 87 87 89 85 87 83 81 77 73 68 66 68 66 66 68 68 66 62 62 64 64 60 60 56 54 50 50 45 43 43 43 48 50 50 54 52 50 45 43 39 37 37 33 35 35 31
73 73 75 79 81 77 75 75 75 79 83 87 85 83 87 85 87 91 91 94 96 98 102 102 104 108 106 102 100 102 102 100 98 100 100 102 104 104 102 104 108 104 108 110 108 106 106 104 102 102 102 104 104 104 106 104 100 100 102 100 96 94 91 91 89 87 89 91 96 96 91 96 96 100 100 98 100 102 98 96 96 100 100 98 96 96 98 94 94 96 100 104 106 110 106 104 110 114 117 121 125 125 123 119 117 117 114 119 117 117 114 114 112 108 108 112 110 112 110 106 104 100 96 91 91 89 85 83 81 81 83 85 89 91 96 100 98 102 104 104 106 108 104 102 102 100 106 110 112 117 119 117 114 110 112 112 110 106 102 104 100 104 104 104 100 100 100 102 106 110 112 112 108 108 108 110 108 112 114 117 117 117 119 114 114 114 110 108 104 102 98 98 98 98 100 104 104 106 106 106 106 104 104 106 104 104 102 102 104 102 104 106 106 106 104 106 110 112 117 119 121 123 123 123 127 125 127 125 121 121 119 117 112 108 104 102 98 94 89 87 85 85 87 89 89 85 85 81 81 83 81 81 77 75 71 71 66 73 75 75 77 79 77 79 75 75 73 77 81 83 81 79 79 81 77 77 81 83 83 85 85 89 91 94 96 94 91 91 89 87 87 89 89 91 91 96 94 96 94 94 94 96 96 96 91 89 89 87 87 87 89 91 89 89 87 85 87 85 83 85 85 87 87 89 87 85 87 91 94 89 85 83 83 79 77 75 73 77 77 79 79 75 73 71 68 64 62 62 62 64 64 62 58 58 58 58 58 54 54 58 60 64 68 73 77 79 79 79 77 77 79 83 79 77 79 81 79 81 77 73 71 68 64 60 58 54 58 62 64 66 66 71 66 66 66 71 75 79 81 85 89 89 91 94 98 102 104 106 102 106 106 104 102 98 94 89 89 91 96 100 100 102 106 106 104 106 104 104 106 106 104 102 100 102 102 104 108 106 104 102 98 96 94 94 94 94 96 94 91 89 91 94 96 94 96 91 89 91 91 91 87 87 85 85 81 83 83 85 87 87 85 81 79 75 73 68 68 68 66 66 71 66 62 62 64 66 64 60 58 54 50 50 50 48 43 45 43 45 48 50 52 54 52 48 43 41 37 33 33 35 31 29
64 68 73 77 77 79 79 77 77 77 81 83 83 83 85 85 83 87 89 91 96 98 98 100 102 106 106 102 100 100 98 98 94 98 98 98 100 100 102 104 108 104 104 108 110 106 104 100 98 100 102 100 102 104 106 104 100 98 98 96 91 89 89 89 85 85 87 89 91 96 94 94 94 98 96 96 100 100 98 96 94 96 96 98 96 98 100 98 96 98 102 104 106 108 108 106 110 112 117 121 125 129 125 123 121 119 119 123 121 117 117 114 110 110 112 114 114 114 110 108 104 102 100 96 94 89 85 81 79 77 79 83 87 91 96 98 102 98 102 106 108 108 104 106 104 102 104 108 110 114 114 114 117 114 114 112 108 106 102 102 100 100 100 100 102 102 102 102 106 108 112 110 108 110 108 112 110 112 117 117 114 114 114 110 110 114 110 106 102 100 98 96 94 96 96 100 100 102 102 102 104 102 102 104 106 106 106 102 102 106 106 108 106 106 106 106 108 110 114 119 123 125 125 123 123 127 129 125 123 121 121 117 112 108 104 100 98 96 91 89 85 87 87 89 89 89 87 85 83 85 85 83 81 77 73 68 68 71 75 77 75 75 73 75 73 71 73 75 79 81 81 77 79 81 79 79 81 83 79 83 81 85 89 91 91 89 89 87 89 87 87 89 87 91 91 94 89 91 94 94 91 91 91 91 89 89 87 87 87 85 85 87 85 87 87 83 85 83 83 83 81 85 89 87 85 87 91 89 89 85 81 85 83 79 75 73 68 73 75 79 75 71 71 66 64 64 62 64 64 66 62 60 56 60 60 58 56 54 56 58 60 62 66 71 73 77 75 77 81 77 77 81 81 79 77 77 77 79 75 73 71 66 62 60 56 54 56 60 64 66 66 66 64 66 68 73 75 79 83 85 87 89 94 98 100 102 104 102 100 104 104 100 100 96 96 91 89 94 98 100 102 106 106 110 108 104 102 102 102 102 100 100 96 100 102 106 104 104 104 100 96 91 96 91 89 91 94 89 87 87 87 91 94 91 91 89 87 87 91 87 83 87 85 81 79 81 85 87 89 85 81 79 77 77 73 71 68 68 68 66 66 64 64 60 60 64 60 56 54 50 48 50 45 45 41 43 41 43 48 48 50 52 52 48 43 39 37 35 37 33 29 25
66 71 73 77 77 81 81 77 77 77 79 83 83 85 83 85 85 87 89 89 91 96 94 96 98 102 102 102 100 96 96 94 89 94 94 94 96 100 102 106 106 104 104 106 108 108 104 100 98 98 98 98 100 102 104 106 104 100 98 94 91 87 87 85 81 83 85 85 89 94 94 94 96 100 98 98 102 100 96 91 89 91 91 94 98 100 96 96 96 98 102 106 106 110 108 108 108 112 117 121 125 129 129 125 125 123 123 125 125 121 119 114 112 114 117 119 117 114 114 110 106 104 104 100 96 91 87 83 81 79 83 87 91 96 100 100 102 100 104 106 108 106 104 106 106 104 106 110 108 112 110 114 117 117 114 112 108 106 102 100 96 96 96 98 102 104 104 104 106 108 110 108 108 112 108 110 112 112 117 112 114 112 112 110 108 112 108 104 102 100 96 91 91 91 94 96 96 98 98 98 100 102 106 106 106 110 106 104 102 106 106 108 108 108 110 110 110 112 117 121 125 125 123 125 125 125 125 127 125 121 119 114 110 108 108 104 100 98 96 91 89 91 91 94 94 94 91 87 85 83 83 81 81 77 73 71 68 71 73 73 71 71 71 71 68 66 71 75 75 79 79 77 81 81 81 79 81 81 79 79 77 83 85 87 87 87 89 87 87 87 87 89 87 91 91 91 89 91 94 91 91 91 89 89 89 87 87 89 89 87 87 85 83 83 83 81 81 85 81 79 77 81 85 87 85 87 89 87 85 85 83 87 83 79 75 73 71 73 73 75 73 71 68 64 64 62 62 66 66 68 64 60 56 58 62 58 56 56 58 60 60 62 66 71 71 75 79 81 81 79 79 83 83 83 79 77 79 81 79 75 71 68 64 60 58 58 56 58 60 64 64 62 62 66 71 75 77 81 85 83 83 87 91 96 98 102 104 102 100 104 100 96 96 98 98 96 94 94 96 100 104 106 108 110 108 106 104 100 100 98 98 98 98 98 100 102 102 100 100 98 94 94 94 89 85 87 89 85 83 83 83 87 89 87 87 87 85 87 87 85 83 85 81 77 77 79 83 87 85 83 83 79 79 75 73 71 68 68 64 62 62 60 60 56 58 60 58 54 50 48 45 45 43 43 41 41 41 43 45 43 48 50 52 48 45 41 37 37 39 35 33 29
71 75 77 81 81 85 83 79 79 79 81 83 87 83 83 85 85 85 85 85 89 91 89 91 94 98 96 98 96 94 91 89 89 91 89 91 94 96 100 104 106 104 100 102 104 106 104 102 98 94 96 98 102 104 104 106 106 102 100 98 94 89 85 83 81 83 87 87 87 89 94 96 96 96 98 100 100 98 96 91 89 89 89 89 94 96 91 96 91 98 100 104 104 108 108 110 110 114 119 123 127 127 125 127 125 125 127 129 129 125 121 117 117 114 114 117 119 119 119 114 110 108 106 102 98 94 89 87 83 85 87 89 94 98 102 104 106 104 106 106 106 106 106 110 108 108 108 106 104 108 108 112 117 112 114 110 106 104 100 96 100 96 96 100 104 104 106 108 108 110 110 106 110 112 108 112 114 114 112 108 114 110 112 110 108 110 106 102 100 102 98 96 91 91 94 94 91 94 96 98 98 102 106 102 104 106 106 104 104 106 106 110 108 108 112 112 110 114 119 121 125 127 123 125 129 125 121 123 123 121 117 112 112 108 110 106 104 100 98 94 94 96 96 98 98 98 94 89 87 85 85 85 83 81 77 75 71 71 73 68 66 71 66 71 71 68 73 75 79 79 81 81 85 81 81 79 83 83 81 81 79 81 81 83 83 83 85 89 85 87 89 87 87 89 94 89 89 91 96 94 91 89 85 87 91 89 91 91 91 89 89 87 83 81 81 85 85 85 81 79 81 79 83 87 89 91 87 87 83 83 83 83 85 81 77 75 75 75 75 77 75 75 71 66 64 64 62 66 64 66 66 64 60 60 58 58 58 58 60 60 62 64 66 66 71 73 77 81 83 79 83 85 85 83 81 79 79 77 81 77 73 68 68 64 62 62 62 62 62 64 66 64 66 68 73 73 75 77 81 79 83 85 91 96 98 102 106 104 100 102 98 96 94 94 94 98 98 96 96 98 102 104 108 112 110 108 106 102 100 98 98 100 100 102 102 102 102 100 102 98 96 96 91 87 85 85 87 83 81 81 79 83 87 89 87 85 83 83 83 83 83 81 77 75 75 77 81 85 87 85 81 79 79 75 73 68 64 64 66 66 64 64 62 60 60 58 54 50 48 45 45 45 41 41 43 41 41 43 41 41 45 48 52 52 50 45 41 41 41 39 37 33
77 79 79 79 79 81 81 79 81 83 85 85 87 87 85 87 87 87 83 83 85 87 87 89 89 94 91 94 89 89 87 85 85 87 85 87 89 91 96 100 104 100 98 98 102 102 100 98 98 94 98 100 104 106 106 106 108 106 102 98 94 89 87 83 83 85 87 89 87 91 96 98 96 94 94 96 96 94 94 96 94 91 94 91 91 94 91 94 94 98 102 106 108 112 112 114 112 117 119 123 125 125 125 125 123 123 127 127 125 125 121 119 119 117 117 119 114 117 119 119 114 110 110 104 100 96 94 89 87 87 89 91 96 100 104 104 104 104 104 104 108 106 108 112 112 112 108 106 104 104 108 110 114 110 112 108 104 102 98 96 96 96 100 102 102 106 108 112 110 112 108 106 108 112 108 112 117 112 110 110 110 110 112 112 110 106 104 102 100 102 100 98 94 91 91 96 96 96 96 96 96 100 102 100 100 102 104 104 104 108 108 112 110 112 112 114 112 117 121 123 125 127 125 129 127 123 121 125 121 117 114 112 114 110 108 108 106 102 102 98 98 100 100 102 102 98 96 91 89 89 89 89 87 83 79 79 75 77 73 68 66 68 68 73 68 73 75 79 81 81 85 85 83 81 79 79 81 81 79 79 79 83 83 81 81 83 83 85 85 83 87 87 89 91 94 91 91 94 91 91 87 87 85 89 89 89 91 91 91 94 89 85 83 81 79 83 83 83 83 81 83 83 87 87 89 87 85 85 83 87 83 81 81 79 79 79 77 75 79 79 77 73 71 66 64 66 64 66 64 64 66 66 64 62 60 60 62 60 62 62 58 62 62 66 71 73 75 79 81 79 81 83 83 85 83 79 79 79 79 75 73 71 71 68 66 66 64 66 64 66 66 66 68 73 73 68 73 75 79 81 83 87 89 94 98 102 104 104 102 104 102 100 96 94 89 94 94 98 96 100 104 106 108 112 108 106 104 102 98 96 96 100 102 106 106 106 102 98 98 100 100 98 94 91 89 87 89 85 83 81 79 79 83 87 85 83 83 83 85 81 81 79 75 75 77 77 79 83 85 83 79 79 77 73 71 66 64 64 66 68 66 68 64 60 56 54 50 45 45 45 45 43 41 41 45 45 45 43 45 45 50 50 50 50 52 50 45 45 45 43 41 39
77 81 83 83 83 81 81 81 83 85 89 87 89 89 87 89 91 91 87 83 85 85 83 85 83 87 87 87 85 85 83 81 83 83 83 83 87 89 94 98 100 96 94 96 98 98 96 100 100 98 98 98 102 106 108 110 106 104 104 102 98 94 89 87 85 89 89 94 91 96 96 98 96 96 98 96 94 91 91 94 96 96 94 91 87 89 89 91 96 98 102 106 110 112 114 117 117 121 119 121 123 125 125 125 123 123 123 125 123 123 123 121 119 117 119 123 119 119 119 121 119 114 112 106 102 100 96 91 89 91 94 96 91 98 102 104 106 106 102 102 104 108 110 110 110 112 108 106 102 104 108 108 110 108 110 106 102 100 98 96 98 100 102 102 104 104 106 108 108 110 110 108 106 108 112 114 114 112 110 110 106 110 114 114 110 108 104 102 100 104 102 98 94 94 94 98 100 100 98 98 96 96 100 96 100 102 102 106 108 112 112 114 110 114 110 114 112 114 119 121 121 123 123 127 125 123 123 121 117 117 114 117 112 108 106 106 104 104 104 102 104 104 104 106 104 102 98 94 94 94 94 91 91 87 83 83 79 79 77 75 71 71 71 71 68 73 77 79 83 85 89 89 87 85 83 81 81 79 79 83 83 85 87 83 83 85 85 87 87 85 87 87 87 87 91 89 89 94 91 89 85 89 87 87 87 85 87 89 87 89 89 87 83 81 79 79 83 87 85 85 87 87 89 91 89 85 85 89 85 87 83 81 81 81 79 83 81 79 81 79 77 75 71 66 64 64 68 68 66 66 71 68 66 64 62 62 64 62 64 60 60 62 66 68 71 75 75 79 83 81 81 81 81 83 83 81 81 79 79 77 73 75 75 73 68 71 68 71 68 71 71 68 64 68 73 71 75 77 81 83 87 89 91 94 98 102 106 102 104 102 100 96 94 94 91 91 91 94 98 98 100 104 106 108 104 104 104 102 98 96 100 100 102 106 108 110 106 102 98 102 104 100 96 94 94 91 94 89 87 83 83 79 79 83 83 81 81 83 81 81 85 83 79 77 79 77 79 81 81 81 79 75 73 73 71 66 64 62 64 64 64 64 62 58 54 52 48 45 45 45 45 43 43 45 50 45 48 48 48 52 56 54 52 50 54 52 50 50 50 48 45 43
85 85 87 85 83 83 81 81 79 85 85 85 87 89 87 91 94 94 91 87 83 81 81 81 81 81 83 83 83 81 79 81 79 79 81 81 83 87 89 94 96 96 91 91 94 96 94 96 98 96 94 98 100 104 106 106 104 106 104 102 100 98 94 91 89 94 94 98 96 98 98 100 96 98 102 98 96 96 94 96 94 96 94 89 87 89 87 87 91 96 100 104 108 112 114 119 121 123 123 123 121 125 129 125 123 123 127 127 123 125 123 123 121 121 121 123 119 123 119 121 121 117 112 108 106 102 98 96 94 96 98 96 94 98 100 104 104 102 100 98 100 104 108 106 108 108 106 104 102 102 106 104 106 104 108 104 102 100 98 96 100 102 104 104 104 102 102 106 104 106 106 108 106 108 112 117 114 112 112 110 108 110 114 112 108 106 104 106 104 104 100 98 96 98 96 100 102 104 102 102 100 100 96 96 96 98 102 106 110 114 117 114 112 112 110 112 112 114 119 117 117 119 121 123 121 123 119 117 112 117 114 114 112 110 108 108 106 106 108 106 108 108 108 110 108 104 100 96 94 98 98 96 91 89 87 85 83 83 81 79 75 75 75 73 73 77 79 79 81 85 89 94 89 85 85 83 79 79 81 85 87 89 87 85 85 85 89 91 87 87 87 89 85 85 89 91 89 89 91 89 85 89 87 87 87 85 87 85 85 85 85 85 83 81 79 81 85 87 87 87 91 89 91 94 94 89 87 89 85 87 85 85 83 83 81 85 85 83 81 79 77 77 73 71 68 66 71 73 68 68 71 71 66 66 64 66 62 62 62 62 60 64 66 68 71 75 75 79 83 83 83 81 81 81 83 83 81 81 83 79 75 77 79 75 73 75 73 73 73 71 68 66 66 71 73 71 75 79 83 83 85 89 91 94 98 102 102 100 100 100 98 96 96 96 94 89 89 94 98 100 98 100 102 104 102 102 102 100 100 100 102 100 102 106 108 110 106 104 100 104 102 100 98 98 98 94 96 91 91 87 85 83 83 85 81 79 79 83 83 81 81 81 79 79 77 75 77 81 77 77 75 73 71 68 68 68 66 62 64 62 62 62 60 58 54 52 50 45 50 50 48 48 43 48 52 50 50 52 52 54 58 58 56 54 58 56 54 52 54 52 50 45
91 89 89 87 87 87 83 81 81 83 87 87 89 91 91 94 98 96 91 87 85 81 81 77 77 77 79 81 79 81 79 77 75 75 79 79 79 83 85 89 91 94 94 91 94 91 91 96 98 94 94 98 102 102 104 102 100 102 102 100 102 102 98 96 94 98 96 98 96 96 94 96 94 94 98 96 96 100 96 96 94 96 96 94 91 87 87 89 94 96 98 102 104 108 110 114 119 121 125 121 119 123 127 127 123 123 125 125 125 127 125 125 125 125 123 125 123 123 121 125 123 119 114 110 108 104 100 100 98 100 100 96 96 100 102 104 100 100 96 94 98 100 104 104 104 104 104 102 100 100 102 102 102 104 108 104 104 104 102 100 102 104 104 108 104 102 100 104 100 106 108 104 104 108 112 117 117 112 112 110 108 112 112 110 106 108 106 108 108 104 102 98 98 96 96 100 104 108 104 106 104 100 98 98 98 100 102 104 108 112 112 117 114 112 112 114 112 117 119 114 114 117 119 119 117 119 117 114 112 114 114 119 117 112 112 108 110 110 110 110 110 112 112 112 110 106 102 100 98 100 100 96 94 89 87 89 87 87 85 83 79 79 77 75 73 75 77 81 83 87 89 91 89 85 83 83 83 83 83 87 89 89 87 87 87 87 91 89 87 85 85 87 83 83 87 89 87 87 89 87 85 87 89 91 91 89 89 85 83 83 81 83 85 83 81 83 87 91 89 91 94 94 94 98 96 94 91 87 87 89 85 85 85 85 85 87 87 87 83 79 77 75 75 71 73 71 75 71 68 71 68 68 68 68 68 71 66 62 64 64 62 66 71 71 73 77 77 77 81 83 85 83 83 81 83 81 77 79 79 75 75 77 75 75 77 77 77 77 77 73 73 71 68 71 71 73 75 79 83 85 89 91 94 96 100 100 98 96 96 98 98 96 98 100 96 91 94 91 94 96 96 96 98 102 98 98 98 100 100 102 104 104 104 106 106 108 106 104 102 104 102 102 100 102 102 98 98 94 96 91 89 85 85 85 83 83 83 85 83 81 81 81 77 77 79 75 73 77 73 73 75 73 68 66 64 66 68 64 62 62 62 64 62 60 58 56 52 48 50 54 52 52 48 52 56 52 52 56 56 58 62 62 60 58 60 60 58 56 58 56 54 50
85 89 87 89 87 87 83 81 81 83 85 85 89 91 94 96 98 94 91 89 85 83 79 75 73 73 77 77 75 77 77 73 71 71 75 77 77 81 81 85 87 91 91 94 96 96 94 96 100 98 94 96 98 98 102 100 98 98 98 98 98 100 100 98 98 100 98 100 96 96 94 91 89 96 98 100 98 96 96 91 91 94 91 91 94 91 87 87 91 96 100 102 106 104 108 110 114 119 123 121 119 119 123 127 125 123 123 127 127 131 129 129 129 129 125 127 125 125 121 121 121 117 114 114 110 108 104 104 102 100 100 96 96 98 100 100 98 96 91 91 94 98 100 104 104 106 106 102 100 98 98 98 100 100 104 104 106 108 106 104 102 104 108 104 102 100 100 104 102 106 108 104 108 110 112 112 114 110 110 110 108 110 110 108 104 106 108 110 108 104 102 100 98 98 96 98 100 104 106 104 102 98 96 94 96 98 98 102 106 108 108 112 110 110 112 112 114 114 119 117 112 112 114 114 114 114 112 110 114 114 119 119 114 112 114 110 112 110 114 114 114 117 114 114 112 108 104 102 98 96 96 98 94 91 87 91 89 91 89 87 83 83 81 77 77 77 77 79 79 83 85 89 87 83 83 83 85 87 85 89 87 85 87 85 85 87 87 85 85 83 81 85 83 83 85 87 91 87 87 87 89 91 91 96 91 87 85 83 79 79 79 81 83 83 81 85 87 91 94 91 94 98 96 100 96 91 91 91 87 85 89 89 89 87 85 87 89 89 85 81 77 75 75 73 73 73 73 71 71 71 68 68 71 71 73 71 71 66 64 68 64 68 71 75 77 77 77 79 77 81 83 79 79 79 83 81 77 75 75 73 73 77 73 77 75 79 77 81 79 77 77 75 73 73 73 75 75 79 81 85 89 89 91 94 98 96 94 94 94 98 98 98 98 100 96 94 91 91 91 96 91 91 94 98 94 96 98 102 102 102 106 108 108 110 106 108 104 102 102 104 104 104 102 106 106 102 102 98 98 96 91 87 85 85 83 83 83 83 81 85 83 79 77 73 77 75 71 73 68 71 73 71 68 68 68 68 66 62 60 64 64 64 66 64 60 56 54 50 54 56 56 54 52 52 54 54 54 56 60 62 66 64 64 60 58 58 60 60 60 60 58 54
94 87 85 87 83 85 81 79 77 83 87 89 91 94 94 94 94 91 89 87 87 83 79 75 73 71 73 73 71 75 73 71 66 66 71 75 73 77 77 81 85 87 91 96 98 98 96 94 98 94 94 96 96 96 98 96 94 94 94 96 94 98 98 94 100 100 98 98 96 96 94 94 91 96 98 100 100 100 98 96 91 96 96 91 91 91 87 91 96 98 102 104 106 106 108 112 114 119 123 125 121 121 125 125 125 125 125 127 131 135 133 133 131 131 129 129 129 127 123 121 117 114 112 114 112 110 108 106 102 102 104 100 100 98 96 96 94 91 89 89 89 94 96 100 104 108 106 104 100 98 94 96 100 102 102 104 104 106 108 104 102 104 104 104 106 102 102 104 102 106 106 106 110 112 110 110 110 106 108 106 106 106 110 106 104 106 104 106 104 104 102 98 94 96 98 98 98 102 104 102 98 96 98 94 91 98 98 100 104 106 106 108 108 110 114 114 119 114 117 119 117 112 112 112 110 110 112 112 114 112 117 119 117 112 112 112 112 114 119 119 119 121 119 119 114 112 108 104 100 96 98 100 96 96 91 91 91 91 91 91 87 87 85 81 79 79 79 79 77 79 83 87 89 85 87 83 85 89 87 89 85 85 89 87 87 89 85 83 81 83 81 85 83 85 87 87 89 89 91 89 94 94 94 96 94 91 87 83 79 79 79 79 79 81 83 85 89 91 96 91 91 96 96 98 98 96 94 91 89 87 91 91 91 87 87 85 87 87 85 81 79 77 77 75 75 75 75 73 71 75 73 73 73 73 75 71 71 68 64 64 68 73 75 77 81 79 79 77 75 77 79 77 75 77 81 79 75 73 71 73 73 75 73 75 71 75 73 77 81 79 79 77 75 75 73 75 75 79 83 85 85 87 89 94 96 96 96 94 94 98 100 100 98 98 94 89 91 94 91 91 89 87 91 94 91 96 98 102 100 100 100 104 108 110 110 106 104 102 102 106 106 106 106 108 108 106 104 100 100 98 94 89 85 85 83 81 79 79 79 81 81 77 75 75 75 73 68 71 66 66 71 68 66 66 64 64 64 62 60 62 64 66 68 66 64 60 56 52 56 58 60 58 56 56 56 54 54 58 62 66 71 68 66 62 58 62 64 62 62 64 62 58
83 83 85 83 83 85 81 79 79 79 83 87 89 94 96 94 91 87 87 83 85 83 79 75 71 66 71 75 71 75 73 68 66 64 68 73 73 73 75 79 83 85 89 94 96 94 94 94 96 94 91 94 98 96 96 94 89 91 91 91 94 98 98 96 98 100 100 98 96 100 96 96 96 98 102 102 104 104 102 98 94 96 98 94 89 89 89 91 94 98 100 102 106 108 108 112 117 121 123 123 121 121 123 123 125 125 123 127 131 131 135 137 135 135 133 131 129 129 125 121 117 114 112 114 114 114 112 110 106 102 104 104 102 100 96 91 89 87 85 87 87 91 96 98 102 104 104 102 98 94 91 94 98 100 104 106 106 108 106 106 102 104 102 102 102 106 106 106 102 104 108 110 114 110 108 110 106 104 104 104 106 108 108 104 104 104 102 106 104 104 104 102 98 98 98 98 98 100 100 98 94 94 98 94 94 98 96 98 102 106 106 108 108 110 112 117 117 119 119 121 121 117 114 117 114 112 112 114 112 112 112 114 114 114 117 114 114 114 117 119 119 123 123 121 117 114 110 106 102 100 100 102 98 100 96 91 96 96 96 94 91 91 87 85 81 83 79 77 75 77 79 83 85 89 91 87 87 89 87 89 87 85 87 85 85 87 85 81 81 81 81 85 87 89 89 89 89 94 94 91 94 94 96 98 96 96 91 87 83 85 81 81 79 83 85 87 89 91 96 96 96 98 98 100 102 98 96 91 91 91 91 91 89 89 85 83 83 87 83 79 79 79 79 77 77 77 79 75 73 73 77 77 75 75 77 73 73 68 68 68 73 75 77 81 85 83 81 77 75 77 77 77 79 79 81 79 77 73 71 71 68 73 73 75 71 73 71 75 79 83 79 79 77 77 77 77 75 79 83 83 83 87 91 94 96 94 91 89 91 96 100 96 96 94 91 89 91 94 94 89 89 87 89 89 89 94 96 100 100 98 98 102 106 106 106 104 102 98 100 104 102 106 106 110 106 106 102 100 102 98 94 91 89 87 87 85 81 79 81 83 81 79 77 77 73 68 68 68 66 68 66 64 62 66 62 60 62 62 62 64 62 62 66 62 62 60 58 54 58 60 64 62 58 60 56 54 54 58 60 64 66 71 66 64 60 62 66 64 62 62 62 58
91 85 89 87 83 83 81 81 83 83 85 83 87 89 91 91 91 89 87 83 81 79 77 75 71 68 71 73 73 75 71 68 64 64 66 71 73 73 73 75 79 83 87 89 91 94 94 96 94 91 91 96 98 96 94 91 87 89 91 96 96 98 98 96 98 98 98 98 96 98 98 98 98 102 104 104 108 108 104 100 98 100 98 94 91 91 94 94 96 98 102 104 106 108 108 110 114 119 123 125 123 121 119 123 127 125 123 125 129 131 135 140 140 137 135 133 131 127 123 121 119 114 110 114 112 114 110 112 108 104 108 106 104 102 98 94 89 85 83 85 87 91 96 98 102 102 102 102 98 94 91 96 98 102 106 110 110 108 108 106 104 102 102 100 102 102 106 102 102 106 106 110 112 108 106 106 104 104 106 104 106 108 110 106 106 102 102 106 106 106 106 104 102 100 100 100 98 100 98 96 94 94 96 94 96 98 96 98 102 106 108 112 110 112 117 117 117 114 121 121 125 121 119 119 119 114 117 119 114 117 117 117 117 117 121 117 114 117 119 121 123 125 127 123 121 117 112 108 104 104 104 104 100 102 100 96 98 98 96 96 91 96 91 87 83 79 77 75 75 75 79 83 87 91 94 89 87 87 91 89 89 87 87 85 87 87 85 83 83 83 83 83 85 85 87 91 94 98 94 96 96 98 100 100 98 98 94 91 87 89 85 85 83 85 87 91 94 94 96 100 100 100 98 100 104 102 98 94 94 94 96 91 89 91 87 85 83 85 85 81 81 83 81 79 79 79 81 77 73 75 79 79 77 77 77 73 75 71 68 73 75 79 81 85 87 87 83 81 77 81 79 81 83 83 85 83 79 75 71 71 71 73 75 77 75 71 71 73 75 79 81 77 77 79 77 77 77 79 83 85 87 89 87 89 94 91 87 91 94 96 98 96 94 96 91 91 94 94 89 89 91 87 91 94 91 96 98 102 100 98 98 102 106 110 106 104 104 102 102 104 104 106 108 108 108 108 106 102 102 100 98 94 91 91 89 89 85 83 83 83 85 81 81 79 75 73 71 66 66 66 62 62 62 62 60 60 60 62 64 66 64 62 62 60 60 64 60 58 62 64 64 60 60 62 58 58 56 58 60 64 68 71 68 66 64 60 64 64 62 60 60 60
87 89 91 89 87 83 81 85 87 87 85 83 83 85 87 91 91 89 87 83 79 77 73 73 71 68 68 68 68 71 68 68 64 64 66 71 71 73 75 75 77 81 83 87 87 91 91 96 96 91 87 94 96 94 89 87 87 91 96 100 100 100 98 96 100 102 102 100 98 100 100 98 100 104 106 108 112 110 106 102 100 102 102 98 94 91 94 98 98 98 100 104 104 106 108 112 117 119 119 121 123 121 121 125 125 125 123 125 127 131 133 137 137 140 135 133 129 125 123 119 114 112 110 112 110 110 108 108 110 108 106 108 106 102 98 94 89 87 83 87 89 94 94 98 98 98 98 100 96 96 94 94 96 100 104 108 108 106 104 102 100 102 102 100 100 100 102 104 102 104 104 106 108 108 106 106 104 104 106 106 108 108 110 110 108 106 106 110 108 108 104 104 102 98 98 98 98 96 96 94 91 94 96 96 96 98 98 100 104 108 112 114 112 117 119 119 119 117 121 123 127 125 121 123 123 119 119 119 119 121 121 117 117 119 123 121 117 119 123 125 125 125 127 125 121 119 114 110 106 108 108 106 104 102 98 96 98 100 96 94 94 94 94 89 85 83 79 75 75 77 79 83 87 91 91 91 89 85 87 89 87 91 87 85 85 85 87 87 85 85 85 83 85 89 91 96 96 98 96 98 98 100 102 104 102 102 98 94 91 91 89 89 85 89 91 94 96 96 100 100 102 100 98 100 102 102 102 98 98 98 96 91 89 91 87 85 87 85 81 83 83 87 83 83 83 79 77 75 75 77 77 81 79 77 75 73 73 71 73 75 79 83 85 89 89 85 85 81 81 83 83 85 87 85 85 85 81 77 75 75 73 77 79 81 77 75 73 75 75 79 79 77 77 79 79 81 79 81 83 87 91 87 83 87 89 91 89 89 94 94 98 94 91 91 91 91 91 91 89 89 89 91 96 96 91 94 98 102 98 98 98 102 106 108 108 108 104 104 104 108 108 108 106 104 104 104 108 106 104 100 96 94 91 89 87 89 89 85 81 83 81 79 81 81 79 75 71 71 66 62 60 60 62 64 62 62 62 64 66 68 68 64 60 60 60 62 60 58 58 60 60 60 64 64 60 62 60 62 62 66 71 71 68 68 64 60 62 60 60 60 64 64
96 94 96 91 87 85 85 87 87 85 83 85 81 81 85 89 89 87 85 81 79 75 73 73 73 68 71 73 71 66 64 68 66 66 66 68 73 75 77 77 73 77 81 83 85 89 91 96 96 91 89 91 91 89 89 89 89 91 94 96 96 100 98 96 98 100 104 102 100 102 102 100 102 106 110 110 110 108 104 106 102 106 106 102 98 94 98 102 100 100 100 102 102 106 110 112 114 119 121 119 121 121 121 123 123 123 127 127 129 131 133 133 135 137 133 129 125 123 119 114 117 112 112 110 106 106 106 110 106 104 104 106 104 100 96 94 89 87 87 85 85 89 89 94 94 94 94 96 91 94 96 96 96 100 104 104 106 104 102 100 98 102 104 100 102 102 102 102 100 100 104 104 104 108 106 104 100 100 102 106 110 110 114 110 112 110 110 112 108 108 106 104 102 98 102 98 96 96 98 94 91 91 96 98 96 96 98 102 106 110 114 117 117 119 123 123 119 121 125 123 123 125 125 125 125 123 121 121 123 121 121 121 119 123 127 125 121 123 121 123 125 127 127 123 121 117 114 110 106 108 104 102 106 104 100 100 102 100 96 94 91 91 89 87 83 83 79 77 77 79 79 83 87 89 89 89 87 85 87 87 87 87 89 89 85 89 89 91 87 87 89 85 87 91 96 98 98 96 96 100 100 102 104 108 106 106 102 98 96 96 94 89 87 91 96 98 100 98 102 102 102 100 100 102 98 100 104 100 100 98 98 94 89 87 87 87 85 85 81 85 83 87 83 83 83 79 75 77 77 79 81 79 79 77 75 77 73 75 77 79 83 87 89 91 89 87 87 83 83 87 87 85 87 89 85 81 81 81 77 77 75 75 77 81 79 75 77 75 79 79 79 77 79 81 79 81 81 81 83 87 89 85 81 85 87 91 94 91 96 96 96 91 91 94 89 91 91 89 87 89 89 94 96 96 91 94 96 98 96 98 100 104 104 106 110 108 106 106 106 106 106 104 106 104 100 102 106 104 102 98 94 94 89 87 87 87 89 85 81 81 79 79 81 79 75 71 71 66 62 58 56 56 60 60 64 64 64 64 66 68 71 68 64 62 62 64 62 62 62 62 62 64 60 62 62 64 62 64 66 68 71 73 68 64 62 64 64 62 62 64 66 68
94 96 94 91 87 87 89 89 87 87 83 85 81 81 85 89 85 85 85 83 79 75 73 75 73 68 68 71 68 66 64 64 66 68 66 68 73 75 75 75 75 77 79 83 87 91 96 96 96 94 89 91 89 89 91 89 91 96 96 100 98 100 100 100 96 98 102 102 98 100 100 98 102 104 108 110 108 104 104 108 106 102 106 104 102 98 102 100 100 102 104 104 104 104 108 112 114 119 121 119 121 121 123 125 127 127 127 131 133 133 133 131 131 133 129 125 121 119 114 110 112 114 110 108 104 104 102 106 102 104 104 108 104 102 98 94 91 89 91 89 87 87 87 91 91 89 94 94 91 96 94 96 96 100 102 104 104 102 102 98 98 100 100 104 104 104 102 102 100 102 102 106 102 104 102 100 98 96 100 104 108 110 112 108 110 114 114 114 110 108 106 104 102 100 100 98 96 96 96 91 89 94 91 94 94 96 100 104 108 110 114 117 117 119 119 121 121 123 125 125 123 123 121 123 127 125 125 121 121 121 123 121 121 123 125 123 123 123 119 121 123 127 125 123 119 114 114 112 108 110 106 104 104 106 102 98 98 98 98 96 94 94 89 85 83 81 79 79 77 79 77 81 85 85 87 87 83 85 85 87 89 91 94 94 89 91 89 91 87 89 91 89 91 96 100 102 100 98 100 102 102 106 108 108 106 104 104 102 100 100 96 94 91 94 98 100 100 98 98 100 98 98 102 100 100 102 104 102 100 98 98 96 91 87 91 89 85 83 83 85 85 89 85 81 81 77 75 79 79 81 79 77 77 77 75 77 77 77 79 83 85 87 91 91 89 87 89 87 83 85 87 89 89 89 87 83 85 83 81 77 75 75 79 79 77 77 79 77 77 79 77 79 77 79 77 79 77 77 81 85 87 83 81 83 87 89 94 91 96 96 94 91 94 91 87 89 85 85 85 87 87 91 91 91 89 89 94 96 96 98 100 104 104 106 110 108 106 106 106 108 106 104 102 100 100 102 104 106 102 100 98 94 94 89 87 87 87 83 79 81 77 77 77 75 73 71 66 62 58 56 54 56 56 60 62 66 66 66 66 68 68 66 66 64 62 62 64 64 66 66 64 64 60 62 62 64 66 66 66 68 68 73 71 66 62 62 62 64 66 66 71 71
89 94 94 91 91 89 89 87 85 87 85 83 81 81 85 85 83 81 81 81 77 73 75 73 68 66 66 66 66 62 66 66 68 71 68 68 73 75 75 77 77 79 79 83 87 91 96 91 91 91 91 96 94 91 91 94 91 96 98 98 100 98 100 98 96 100 98 98 98 96 96 94 98 102 106 108 110 106 106 104 104 104 104 104 104 102 104 102 104 106 106 108 108 108 110 112 117 121 125 123 123 125 125 127 131 131 131 135 137 135 133 131 129 129 127 123 119 117 112 110 110 110 106 106 102 100 100 102 100 102 102 104 106 104 100 96 91 91 94 91 91 87 85 89 87 87 91 96 91 91 89 91 94 98 102 106 104 106 102 100 98 102 102 106 106 102 100 102 102 100 100 102 98 100 98 98 94 96 98 102 106 110 108 108 108 112 112 114 110 106 104 104 104 100 96 96 96 98 94 89 89 89 89 87 91 96 98 102 104 108 112 114 117 117 117 119 121 125 121 121 123 123 123 127 127 129 129 125 123 123 125 125 123 125 125 127 125 123 119 121 123 123 125 121 119 114 117 114 110 112 108 104 108 104 100 98 96 100 100 100 96 96 94 89 85 83 81 81 81 77 77 77 81 83 83 85 83 85 85 89 94 96 98 96 94 94 89 89 87 91 94 94 96 100 104 106 104 100 100 104 104 108 110 106 102 102 102 104 104 104 100 96 96 96 98 100 102 102 100 102 100 100 102 102 102 104 106 104 100 100 98 94 91 89 89 89 85 83 85 87 89 87 87 83 79 77 79 81 79 79 75 75 75 75 75 77 79 81 83 85 89 89 89 91 89 91 91 87 85 85 85 89 89 89 89 85 81 83 79 79 79 77 79 79 79 81 83 79 81 77 75 79 75 75 73 75 77 81 83 83 85 85 81 85 85 89 91 94 94 91 91 91 89 87 85 85 83 81 81 85 89 91 91 87 87 91 94 98 100 100 102 100 100 104 108 106 106 108 108 110 108 104 102 98 100 102 104 106 102 100 98 98 98 94 89 87 85 81 77 77 77 75 73 73 71 71 66 62 60 56 54 58 56 58 62 66 68 66 68 66 66 64 66 62 62 66 68 68 68 71 66 66 64 64 64 66 71 68 71 66 66 68 68 64 64 64 64 66 68 71 73 75
89 91 91 89 89 91 87 85 83 85 83 81 81 81 81 81 79 79 77 77 73 73 73 68 64 62 62 62 64 64 68 68 73 71 68 68 73 75 75 77 79 83 83 85 87 91 91 89 89 91 96 98 96 94 94 96 94 94 98 96 98 96 98 98 96 96 96 96 98 96 96 96 100 102 106 110 110 108 106 104 100 106 106 108 106 104 106 106 108 110 110 112 112 112 112 117 114 119 123 125 127 125 127 131 133 133 135 137 142 137 137 133 129 131 127 123 119 114 112 110 106 108 104 104 100 96 96 98 96 98 98 102 102 100 98 94 91 94 94 91 89 85 83 85 85 89 94 98 96 94 89 87 91 96 98 102 106 108 104 102 100 104 104 106 104 102 98 100 104 100 96 98 94 98 96 94 89 91 94 98 102 106 108 110 108 112 112 114 110 108 104 104 102 100 96 94 94 94 89 91 91 91 89 89 91 96 98 102 106 110 114 117 119 117 114 117 117 121 117 119 121 125 123 123 125 125 127 127 127 127 129 127 127 127 127 127 127 125 121 119 121 123 121 119 119 119 119 119 114 110 108 106 104 104 102 98 96 98 100 102 98 94 91 87 87 85 83 81 77 79 77 77 77 79 81 83 85 89 89 91 96 98 102 100 96 91 91 91 87 91 94 96 100 104 106 108 108 104 102 104 108 108 106 102 98 102 102 102 102 106 104 100 98 100 102 104 106 106 102 106 102 102 102 100 100 104 104 106 102 98 94 91 91 91 89 85 81 87 87 89 87 83 85 81 79 77 81 81 81 77 77 77 75 79 79 81 83 83 85 89 87 87 87 87 91 94 94 89 85 83 83 85 85 87 87 85 81 81 79 81 79 81 81 83 79 83 85 83 81 77 75 77 73 71 71 71 73 77 81 79 81 83 85 87 87 89 91 94 91 89 89 89 85 85 83 81 79 79 81 85 87 87 89 85 85 89 91 96 100 102 100 98 96 102 104 108 108 110 108 108 106 102 100 98 102 104 104 102 100 96 96 96 96 91 87 85 85 81 77 75 73 71 68 68 66 68 64 60 56 56 58 58 56 60 60 62 66 68 68 66 62 62 64 66 64 66 68 73 73 73 68 71 68 64 62 66 66 66 66 68 68 64 64 64 62 66 66 71 73 73 77 75
94 96 91 94 91 89 85 85 81 81 83 81 81 81 79 79 75 75 73 73 71 75 71 66 62 64 60 60 64 64 68 68 68 71 73 71 71 71 73 75 77 81 83 85 89 91 91 91 91 96 98 96 94 96 94 94 91 94 94 94 96 96 96 98 94 98 100 98 100 98 100 96 100 100 104 108 110 110 108 104 102 102 106 104 104 108 110 108 112 114 114 110 110 114 114 112 110 114 119 121 123 121 125 129 133 135 137 140 142 140 135 131 129 127 127 123 119 114 112 108 104 104 104 100 98 94 98 98 96 100 98 98 100 98 98 96 96 96 94 94 91 87 83 83 85 89 91 96 98 94 91 87 89 94 98 102 106 106 104 100 98 102 102 102 102 100 98 98 100 98 96 94 94 96 94 91 87 89 91 96 100 104 108 110 108 110 108 112 112 110 106 104 104 100 96 94 91 91 89 94 96 96 91 89 89 91 96 100 102 106 110 114 117 117 114 114 114 117 114 117 117 121 119 119 121 125 127 129 129 129 133 131 129 127 129 131 129 127 123 119 117 119 119 121 121 121 121 119 117 112 108 106 102 104 104 100 98 94 96 98 96 91 91 91 89 87 85 81 77 77 73 75 73 79 81 85 89 94 91 96 98 102 104 100 98 94 89 89 89 94 98 100 100 104 104 108 104 100 102 106 104 104 102 98 96 98 102 98 100 104 106 104 102 104 106 106 110 110 106 106 104 104 102 100 100 100 100 104 104 100 96 94 91 94 89 85 83 85 87 87 83 81 81 79 77 81 83 81 81 77 77 75 75 79 83 85 85 85 85 87 85 85 83 85 89 91 91 87 87 85 85 83 83 85 85 81 77 79 81 83 81 83 85 83 83 87 89 85 85 81 79 75 71 68 68 68 68 73 77 75 77 81 83 87 89 89 89 89 87 85 87 85 83 81 79 77 75 75 77 81 83 83 85 81 85 87 91 96 100 102 98 98 98 100 104 106 110 106 108 104 106 104 104 100 104 102 100 98 96 91 91 91 94 89 85 81 83 81 77 73 68 66 64 64 62 64 60 58 58 58 60 58 56 58 60 62 66 68 66 64 64 66 68 66 66 68 71 75 75 75 71 68 66 64 60 62 62 64 66 68 66 64 68 66 62 66 71 73 77 77 81 79
91 96 94 94 91 91 89 87 85 85 85 83 81 85 81 77 77 75 73 71 71 71 66 64 62 64 64 64 62 60 64 66 66 71 73 73 73 73 75 71 75 79 83 85 87 91 91 91 91 94 96 96 94 96 98 94 91 89 94 96 91 96 96 96 94 96 98 102 98 100 100 96 98 100 104 108 112 114 110 106 104 104 106 104 106 110 114 112 114 119 117 114 114 112 114 112 112 112 117 119 119 117 123 127 131 133 137 142 140 137 133 129 125 129 127 123 119 114 110 108 104 102 102 98 96 94 98 98 96 100 98 96 96 96 98 96 91 94 91 89 89 85 83 83 83 87 91 94 96 94 91 91 89 91 96 100 102 104 100 98 98 100 100 98 100 96 96 96 98 102 100 96 96 100 96 91 87 89 91 96 100 104 108 110 108 108 106 110 110 108 106 106 104 102 98 96 96 94 91 89 94 91 91 89 89 94 96 98 100 104 106 110 112 117 114 117 112 114 110 114 114 117 117 121 121 125 125 129 131 131 133 131 131 129 131 131 127 125 123 119 117 117 119 123 123 123 121 117 112 112 110 106 102 102 102 98 94 94 91 94 96 94 94 94 94 89 85 81 77 75 73 75 75 79 83 87 91 94 96 98 102 106 106 102 100 96 91 91 94 96 100 104 100 100 100 104 102 98 100 102 102 102 98 94 91 96 98 96 96 100 104 106 106 108 108 110 112 112 110 108 104 104 104 104 102 104 102 104 102 100 100 96 94 96 94 89 85 89 87 87 83 81 79 79 77 81 81 79 79 77 77 75 79 83 85 89 89 87 87 89 85 87 83 85 85 87 87 85 83 83 87 83 85 87 83 79 79 81 81 85 83 87 89 85 85 87 87 87 87 83 79 75 71 68 68 71 73 75 75 73 75 77 81 85 89 89 89 91 87 85 85 85 83 79 77 75 71 71 75 77 79 79 83 83 85 89 94 98 102 104 102 98 98 100 104 104 106 106 104 102 102 106 104 102 102 100 98 96 91 89 87 87 89 87 83 79 79 77 75 71 66 64 62 60 58 60 58 58 58 60 64 60 58 60 62 66 71 68 66 64 64 68 66 66 66 66 68 73 73 71 71 68 64 62 60 62 66 66 66 71 68 66 66 66 62 66 71 75 79 81 83 83
91 94 94 91 94 89 85 89 89 89 89 85 83 83 85 81 79 77 75 75 71 66 64 60 62 62 64 62 62 60 62 64 66 71 73 75 77 75 75 73 75 79 83 87 91 94 96 94 94 94 91 94 94 96 100 98 94 91 91 94 94 94 98 100 96 98 100 98 98 98 98 98 100 104 108 112 112 114 112 110 108 108 106 106 110 112 117 117 119 121 121 117 114 112 110 112 112 114 119 119 121 119 121 125 129 133 135 140 140 135 131 129 127 129 127 125 121 117 112 108 106 102 100 98 98 96 96 98 100 102 98 98 96 98 96 94 91 91 91 91 91 89 85 83 87 87 91 96 98 94 94 96 94 94 96 100 100 102 104 102 102 100 96 96 98 98 98 100 100 98 98 100 100 100 98 94 91 89 94 96 98 100 104 106 106 106 106 106 108 110 108 106 102 102 100 100 100 98 94 91 91 94 96 91 91 94 98 100 102 106 106 110 112 114 117 112 112 110 110 112 110 112 114 119 121 125 129 131 133 135 135 131 135 133 133 129 127 127 125 121 119 119 119 121 121 125 123 119 114 114 110 106 102 102 104 102 98 94 91 94 98 98 96 94 91 87 83 81 77 75 73 77 79 81 85 87 91 94 98 100 102 104 106 104 102 98 94 91 91 94 98 100 100 98 96 100 98 94 96 98 102 100 96 91 87 91 96 96 98 102 104 108 110 110 112 112 117 117 114 110 108 106 106 108 104 106 102 106 106 102 102 98 94 96 94 91 87 87 89 85 85 85 81 81 81 83 81 81 81 81 81 79 81 85 89 94 94 91 91 94 89 87 85 87 87 85 85 81 81 85 89 87 85 87 83 81 81 85 85 87 85 85 89 89 89 89 89 89 85 83 81 77 75 71 71 75 77 79 77 73 77 81 85 89 91 94 91 94 91 89 87 85 81 77 75 71 68 66 73 77 79 83 85 83 87 89 94 98 102 106 104 100 98 102 102 100 102 102 102 102 102 104 102 102 100 96 94 94 89 87 83 85 87 85 83 79 79 75 71 66 62 62 60 60 58 58 54 56 58 62 62 60 58 60 64 66 71 68 66 68 66 64 62 64 66 68 68 68 71 71 71 68 64 62 62 64 68 66 68 68 71 66 64 64 66 71 75 77 81 83 85 83
87 89 91 87 89 89 87 87 91 91 89 87 85 83 81 79 83 81 77 73 68 66 64 60 60 62 62 64 64 62 64 66 71 75 77 79 77 77 77 75 77 81 85 89 94 98 94 94 98 94 91 94 91 96 96 94 98 96 96 94 96 98 100 102 100 98 98 96 94 96 100 100 104 108 110 114 117 112 112 108 108 108 106 106 110 112 114 119 123 125 121 117 117 112 108 108 112 114 117 121 119 119 119 123 125 129 133 135 135 133 129 125 127 129 125 123 119 117 114 112 108 106 104 102 100 100 96 98 100 100 100 100 96 96 96 96 91 91 94 96 94 89 87 87 89 91 94 96 94 89 94 98 96 98 100 102 102 104 100 104 102 98 94 94 94 96 96 96 100 102 98 96 102 98 94 96 94 91 96 100 98 98 100 104 102 106 106 108 108 108 106 106 102 102 100 102 98 98 98 94 94 96 94 94 96 96 98 100 100 104 106 110 114 119 114 112 110 110 110 110 110 112 117 121 125 129 131 131 135 137 140 135 137 133 131 127 125 125 125 123 123 121 119 123 121 123 123 119 114 112 108 106 104 102 102 98 94 94 96 96 96 96 91 91 91 87 85 81 79 77 77 79 81 81 85 87 87 91 96 100 104 104 106 106 104 100 98 94 91 96 94 98 96 94 94 96 94 89 94 96 98 98 96 91 89 91 96 96 96 100 104 108 110 110 112 117 119 117 112 110 110 110 108 106 106 104 102 106 106 104 100 98 96 96 91 89 89 89 89 87 85 85 81 83 85 87 85 85 85 85 85 83 85 89 94 96 98 96 96 98 94 91 89 87 87 83 81 79 79 83 85 85 85 85 85 83 85 87 87 85 89 87 89 85 85 89 87 89 85 87 83 79 77 75 73 75 79 81 77 77 79 81 85 89 94 96 94 98 96 91 87 85 81 77 77 75 71 68 73 77 81 83 87 85 89 94 96 98 102 104 102 100 100 104 104 100 100 100 98 100 96 100 98 96 96 89 87 89 87 85 83 85 85 83 79 79 77 75 71 66 62 62 60 62 60 58 54 56 58 62 60 56 58 62 64 64 68 68 66 68 64 60 58 62 66 66 66 66 68 73 68 66 66 62 62 66 68 66 66 64 68 66 64 66 71 73 77 81 85 85 87 85
85 85 87 85 85 87 91 89 89 89 87 83 81 85 83 79 81 79 77 77 73 71 68 64 62 64 64 66 66 66 68 71 75 77 79 83 79 81 81 77 81 85 89 91 96 94 94 96 98 96 94 91 89 91 91 91 94 98 98 96 100 102 100 102 100 98 100 96 94 98 102 102 106 110 114 114 119 117 114 110 112 112 110 110 112 114 119 123 125 125 121 119 119 117 112 112 114 112 117 121 123 121 121 125 125 129 131 131 131 131 129 125 127 129 125 123 119 119 117 114 110 110 108 104 104 104 100 100 100 96 98 96 96 96 94 96 96 94 98 96 94 94 91 91 94 94 94 94 91 91 96 98 98 102 104 102 100 100 100 102 98 98 94 94 96 94 96 100 100 100 100 98 98 96 91 91 94 91 94 96 100 98 96 100 98 102 106 106 106 106 102 102 102 104 102 100 98 98 96 94 94 96 96 94 96 98 100 104 102 104 102 108 112 114 114 110 110 110 108 108 110 112 117 121 123 127 129 129 131 135 140 135 137 133 129 127 123 123 123 123 125 125 121 121 123 121 121 119 114 110 108 106 102 102 106 102 98 96 100 96 94 94 94 94 94 91 87 83 81 77 77 81 81 81 85 89 87 91 96 98 102 104 108 106 108 104 100 98 96 96 94 94 94 91 91 91 91 89 91 96 98 98 94 91 94 96 100 100 100 100 100 104 108 106 108 112 114 119 114 112 112 112 110 108 108 106 106 108 108 104 102 100 96 98 94 91 91 94 94 91 87 87 83 87 87 91 89 89 85 87 89 87 85 87 89 94 98 98 98 100 96 94 91 87 85 83 85 81 79 83 81 83 83 85 87 85 87 85 83 83 85 85 85 85 83 87 83 85 83 83 81 77 75 75 73 77 79 83 79 81 79 81 85 87 89 94 96 96 91 87 85 81 79 79 79 77 75 73 73 77 81 85 89 89 91 96 98 100 100 102 104 100 100 100 100 98 100 98 98 96 91 94 91 91 89 85 83 83 83 83 83 83 81 79 77 75 75 71 71 66 64 62 62 64 62 58 58 56 60 58 58 54 56 60 62 62 64 66 64 66 62 58 58 60 64 66 68 64 68 68 64 66 64 64 66 68 71 68 68 66 66 68 68 71 73 77 81 85 87 89 87 89
81 85 83 83 87 89 89 91 91 89 87 85 81 81 81 81 81 81 79 77 73 71 71 66 64 68 66 66 68 68 73 75 75 79 83 81 83 83 85 81 81 85 89 94 94 91 91 96 96 96 94 91 89 89 91 94 89 96 96 100 100 102 104 102 98 98 98 96 96 100 100 102 104 108 112 112 117 121 117 112 117 117 114 114 114 117 121 125 123 127 123 121 119 117 117 114 117 112 114 117 119 123 121 125 123 127 129 127 129 127 125 125 129 131 127 125 121 117 112 110 106 108 108 106 108 106 104 100 98 94 94 91 91 94 91 94 94 94 96 91 91 89 91 94 96 98 96 94 94 94 96 98 96 98 100 100 98 98 98 100 98 98 96 94 91 91 96 100 96 98 100 100 98 94 91 89 89 89 89 94 96 96 96 96 98 100 104 106 104 102 100 98 98 102 102 100 98 98 94 91 96 98 98 96 96 98 102 102 106 104 104 106 110 114 112 114 110 106 106 104 110 114 119 123 121 123 125 127 131 135 137 135 135 133 129 125 123 125 123 127 125 129 125 123 121 119 119 114 112 108 108 104 102 104 102 100 96 96 98 96 94 96 96 96 94 89 87 83 81 81 79 79 79 79 83 87 87 89 94 96 100 102 106 104 106 106 102 100 96 96 96 91 91 87 89 89 89 89 91 91 96 96 91 91 96 100 102 98 98 100 102 104 104 102 106 108 112 114 114 114 110 110 110 108 110 110 106 110 110 106 102 98 98 100 98 96 96 96 98 94 91 89 87 89 91 91 91 94 89 89 91 89 85 85 89 91 96 96 100 102 100 98 94 89 87 87 85 83 81 81 79 79 79 83 85 85 87 83 81 81 83 83 81 83 79 83 81 81 79 83 79 77 79 79 77 77 81 83 79 81 81 83 83 83 87 89 91 91 89 87 87 83 81 83 83 81 79 77 77 81 85 87 91 91 94 98 100 102 104 104 100 98 98 98 96 96 98 98 96 89 87 89 87 87 85 81 79 79 79 79 81 79 79 77 75 73 71 66 66 64 60 58 58 62 60 56 54 56 58 56 56 54 52 56 58 60 62 66 62 64 60 58 58 60 62 66 64 64 66 66 62 62 66 66 68 71 71 71 71 68 66 68 73 73 77 81 83 85 87 91 91 91
81 81 85 87 89 89 87 89 89 89 87 85 83 83 79 77 77 79 79 77 73 73 75 71 66 64 62 66 66 68 71 73 75 77 81 81 83 85 85 81 85 89 91 96 96 94 91 91 94 98 98 96 91 91 94 91 91 94 96 96 98 102 104 104 102 102 100 100 98 102 100 102 106 110 114 112 117 121 117 117 121 121 117 112 112 114 119 121 119 123 121 121 119 117 121 117 117 114 114 117 117 119 123 123 121 123 127 127 129 127 125 127 125 129 129 123 119 117 112 108 104 106 106 106 108 110 106 102 98 96 91 89 89 91 87 91 94 96 96 94 91 89 94 98 100 102 98 96 96 98 100 96 96 98 98 98 96 96 94 98 102 98 100 96 96 96 96 100 98 100 102 100 96 91 89 89 89 87 85 89 94 94 94 94 98 102 106 104 102 100 96 96 98 98 100 98 96 94 91 89 91 96 100 100 100 100 102 104 106 104 104 108 108 112 110 110 108 108 106 106 110 112 117 121 119 123 127 129 133 137 137 135 135 131 129 125 125 127 125 129 127 127 127 125 123 123 121 117 112 108 110 106 104 102 100 96 94 94 96 98 98 100 100 100 98 94 89 87 85 81 79 83 81 81 83 85 89 94 98 94 96 100 102 102 104 102 100 98 96 96 96 94 91 87 85 89 89 91 91 91 91 94 89 91 94 98 102 102 100 102 102 104 102 102 102 106 108 112 114 112 112 114 110 110 114 112 110 108 108 104 102 102 100 104 100 100 100 100 102 98 96 94 91 94 94 94 94 94 89 94 96 91 87 87 89 94 96 98 102 106 102 98 96 91 87 89 89 85 83 81 83 83 83 81 81 85 85 83 81 81 79 79 79 79 79 79 77 77 77 79 75 79 81 79 77 79 81 81 81 81 83 87 83 85 85 89 89 89 87 87 89 85 85 87 85 83 83 79 79 81 85 89 94 91 94 98 102 104 106 104 102 100 98 98 98 96 98 96 89 87 83 85 81 81 79 77 75 75 73 77 77 77 75 73 73 68 66 62 66 64 62 58 56 58 56 52 50 52 54 54 56 56 54 58 62 64 64 64 62 60 58 56 56 58 62 66 62 66 64 62 60 62 66 68 64 71 73 73 73 73 71 73 75 75 77 83 87 87 89 94 89 87
83 85 83 87 87 89 85 85 87 89 87 87 83 81 79 75 73 75 77 77 75 75 71 68 64 62 58 62 62 64 66 71 71 73 77 79 83 87 83 81 83 87 91 96 96 94 91 89 89 94 96 100 96 91 91 91 91 91 96 98 100 104 102 102 104 104 102 100 102 106 104 102 106 110 112 112 112 117 117 117 119 117 114 114 114 114 117 117 117 119 117 117 117 112 117 119 117 119 114 117 119 117 119 121 119 123 123 127 127 123 121 123 123 123 125 121 119 114 110 106 104 102 102 106 108 108 108 104 102 98 96 91 89 89 89 94 94 98 98 96 94 94 96 98 100 100 98 96 100 100 102 98 96 96 96 96 96 91 91 94 98 98 98 98 96 98 96 100 98 100 100 96 94 91 89 94 89 85 85 85 89 89 89 94 98 100 102 104 102 98 94 96 94 94 98 100 96 91 89 89 91 96 100 96 98 100 100 102 102 100 104 108 110 114 110 106 104 108 106 106 108 110 114 119 119 121 125 129 131 135 140 140 135 131 127 125 127 129 125 129 127 125 123 121 125 123 119 117 112 112 108 106 102 100 102 98 94 94 91 96 98 100 100 102 100 96 94 89 85 81 81 81 81 83 87 89 94 98 94 94 96 98 100 104 102 104 100 100 98 98 96 94 91 87 87 89 87 89 89 89 91 91 87 89 94 98 100 104 104 104 102 104 104 104 102 104 108 110 112 114 114 112 110 112 112 114 110 106 104 106 104 106 104 108 104 102 104 104 104 102 100 98 96 98 98 96 98 94 91 94 94 91 89 89 89 94 96 100 100 104 100 96 96 96 91 91 89 85 81 81 81 81 83 83 83 87 83 83 83 83 81 77 77 79 79 77 73 73 75 77 75 77 77 81 77 79 79 79 83 85 85 85 85 87 87 87 91 87 85 87 87 87 87 87 83 85 83 83 81 85 89 91 91 89 89 94 98 102 102 100 98 98 94 94 94 96 94 89 87 83 79 79 79 77 75 73 68 68 71 73 73 73 73 71 71 66 62 58 62 64 60 56 56 56 52 50 52 52 52 54 56 56 54 56 58 62 60 66 64 62 60 58 56 60 60 62 62 64 60 58 60 64 66 66 66 71 71 73 77 77 73 75 79 79 79 83 87 91 91 94 89 89
81 81 81 83 85 89 87 83 83 85 85 83 79 79 75 73 68 73 73 75 71 73 68 64 62 60 58 58 60 62 64 66 68 71 73 75 79 83 85 83 85 89 94 96 98 96 91 89 85 89 94 96 96 94 91 91 91 91 96 98 102 102 106 102 102 104 104 102 106 108 104 106 108 112 117 117 114 114 119 117 117 114 117 117 119 117 119 114 112 114 112 114 114 110 114 117 112 114 114 114 114 114 119 121 119 119 119 123 127 125 121 119 119 119 121 119 114 110 108 104 100 104 102 104 104 106 108 104 102 100 96 94 91 89 89 91 91 96 94 98 96 96 98 102 102 102 98 100 96 102 98 96 100 98 96 98 98 96 94 98 94 94 96 94 91 96 98 96 94 98 98 98 96 96 94 89 87 89 87 87 85 89 91 91 94 98 100 102 98 96 91 91 89 89 94 96 91 89 91 89 89 91 96 100 102 104 102 100 98 98 102 104 106 110 108 104 100 106 106 106 108 110 114 119 119 119 123 127 129 133 137 135 133 131 127 127 127 129 127 129 125 125 125 123 123 119 117 112 110 110 108 108 104 100 104 100 96 94 91 94 94 98 96 100 100 96 96 91 87 85 83 83 85 85 89 91 96 98 96 94 94 96 100 104 102 100 98 96 96 96 98 98 94 91 87 85 83 87 87 89 87 87 85 89 91 96 100 104 108 106 106 106 104 102 102 104 106 108 110 114 112 108 112 110 108 112 108 104 102 102 106 108 104 108 104 102 104 104 104 100 100 100 100 96 94 91 94 98 94 91 89 87 94 91 94 96 94 98 98 100 98 98 100 98 94 89 87 83 81 81 81 79 81 83 87 87 83 83 81 79 79 81 79 77 75 73 68 71 71 75 75 75 75 77 79 83 83 81 85 83 83 85 85 87 87 87 89 85 83 85 89 89 89 85 81 81 79 79 83 87 91 89 89 85 87 91 96 100 100 98 98 94 91 89 91 91 89 87 83 79 75 77 75 75 71 68 66 66 66 68 68 68 71 68 66 62 60 60 60 62 58 58 56 54 50 50 56 54 54 56 58 56 54 56 60 62 62 64 64 60 56 58 56 58 62 64 62 60 58 54 58 62 64 66 68 71 73 77 77 77 73 75 79 79 79 81 83 87 91 96 91 89
77 79 81 83 87 89 85 83 81 81 83 81 77 75 73 73 68 68 68 71 68 71 66 62 58 58 60 62 64 64 64 64 64 68 68 73 77 81 83 83 87 91 96 100 100 98 94 89 87 89 91 96 98 96 91 89 87 94 98 100 98 100 102 100 98 102 106 106 104 108 104 106 108 110 114 119 117 114 119 119 117 114 117 119 123 121 117 112 112 112 110 110 110 110 112 112 110 110 112 114 112 112 117 121 117 119 121 125 127 123 119 117 114 117 117 114 110 108 106 104 100 102 102 100 100 102 104 104 100 96 96 94 91 94 89 91 94 98 96 100 100 100 102 104 102 104 102 98 98 98 96 96 96 96 96 96 96 98 98 94 89 91 91 91 91 96 98 94 89 94 96 98 96 98 94 91 87 89 89 89 87 87 89 91 94 96 98 100 98 96 91 87 85 87 89 91 89 89 89 89 91 94 94 96 100 102 100 98 96 98 98 102 104 106 104 102 102 104 106 106 104 110 112 117 119 121 121 125 127 131 135 135 131 129 129 129 129 133 131 133 129 125 127 127 123 121 117 114 110 110 110 106 104 102 102 100 96 91 91 96 96 98 98 98 100 98 96 91 89 89 85 85 87 89 94 96 98 98 98 96 96 100 102 104 102 98 98 96 96 100 100 98 94 89 85 83 83 87 87 85 85 87 85 87 89 94 98 102 106 110 108 104 104 102 102 106 106 108 110 112 110 110 110 112 108 112 108 104 104 106 108 110 108 106 106 102 102 102 102 102 104 104 100 98 94 89 91 94 94 91 89 89 89 91 91 91 89 94 94 96 96 100 102 100 96 94 89 85 83 81 81 79 81 85 87 85 81 81 77 77 79 83 79 77 75 71 68 68 68 71 71 73 73 77 79 83 85 83 81 77 79 83 85 89 91 89 91 87 83 85 85 85 85 87 83 83 79 83 85 89 89 89 87 87 89 94 98 98 96 96 94 89 87 85 89 87 85 83 79 75 71 73 71 71 68 64 62 62 62 64 64 64 66 68 64 60 60 60 62 60 60 60 58 56 52 54 58 58 56 58 58 58 56 56 58 62 64 64 60 58 54 54 58 60 64 64 60 58 54 52 56 60 62 64 66 68 71 73 77 79 77 77 77 75 79 83 85 89 94 98 94 91
79 83 83 83 83 87 87 83 79 81 79 77 75 71 71 75 71 71 71 71 68 68 71 66 62 62 64 64 66 66 66 68 66 71 73 77 79 83 85 85 89 91 96 98 98 98 94 89 87 85 89 91 94 96 94 89 89 94 96 96 94 96 98 96 98 100 104 106 104 104 106 110 110 114 117 121 121 117 117 114 114 114 119 123 125 123 119 117 112 110 106 106 106 110 108 110 112 112 108 112 112 112 117 117 114 119 121 125 123 119 117 112 112 112 112 110 106 108 110 106 102 102 102 104 102 102 102 102 100 100 98 96 94 96 91 94 98 100 98 100 102 102 104 108 106 102 98 98 100 98 96 98 98 96 96 94 91 96 94 91 87 87 87 87 91 94 94 91 89 94 98 100 98 96 96 91 89 91 89 91 89 87 85 87 91 96 98 100 98 91 87 85 81 83 85 87 89 89 87 85 87 89 89 94 98 98 96 98 96 100 102 106 104 106 106 104 106 106 108 108 106 110 112 117 119 123 123 127 123 127 131 131 129 131 129 131 131 131 133 137 133 129 129 131 127 125 121 119 114 112 110 110 108 106 106 102 98 94 94 96 98 102 100 102 98 96 91 96 94 91 87 87 91 94 98 100 100 102 102 100 98 102 104 108 104 102 100 98 98 102 100 96 94 89 85 83 81 83 85 83 81 85 87 83 87 91 96 100 104 106 106 104 106 106 106 108 106 108 110 110 112 110 110 114 110 112 110 106 106 110 110 112 108 108 110 106 102 102 102 104 108 106 102 98 94 89 89 91 94 91 91 89 89 94 94 89 87 89 91 94 91 96 98 98 96 94 91 87 83 79 79 77 79 81 85 81 79 77 75 75 77 81 79 75 75 71 68 71 68 68 71 75 75 75 77 79 83 81 77 75 77 79 83 87 91 89 89 87 85 83 83 83 81 85 87 85 83 81 83 85 87 87 87 89 94 96 100 100 96 94 89 85 83 83 85 85 83 79 77 73 71 68 66 68 64 62 60 58 58 62 64 64 66 68 64 60 60 60 62 62 64 62 58 58 56 58 62 60 60 62 62 60 58 60 58 60 60 62 58 54 50 50 54 58 60 62 58 54 52 52 56 60 62 64 64 64 68 71 73 75 77 77 73 73 75 79 83 87 91 94 96 94
79 83 83 83 79 83 83 79 79 83 81 79 77 73 75 77 75 75 71 73 68 66 66 64 64 66 68 68 71 66 64 68 71 73 75 79 83 87 87 89 89 91 91 96 96 96 91 87 83 81 85 89 91 96 96 91 91 94 94 94 91 91 94 94 96 98 100 104 104 104 108 112 114 117 119 123 121 119 117 117 119 117 117 121 121 123 119 114 110 108 106 106 104 106 110 112 114 110 110 112 110 112 114 117 114 119 119 121 119 114 112 108 108 108 110 106 102 104 108 106 106 104 106 106 104 102 104 102 100 100 98 98 98 94 94 96 100 100 100 104 102 106 104 108 104 100 100 100 100 100 96 98 100 96 94 89 87 91 89 89 85 83 83 85 87 91 91 94 91 96 94 98 96 91 91 89 89 91 89 91 89 87 85 83 87 91 94 96 94 89 85 81 79 79 81 83 87 87 83 83 87 89 94 96 94 94 94 98 98 100 104 108 108 110 106 106 108 110 112 110 108 110 114 119 123 123 123 125 125 127 129 129 125 131 133 135 135 135 137 142 137 133 133 135 131 127 125 123 119 114 114 114 110 110 106 102 98 96 98 100 102 106 102 100 98 96 94 94 96 94 91 91 91 96 98 102 104 100 98 100 102 104 106 110 106 104 102 100 98 102 98 94 89 85 81 81 79 83 81 81 81 81 83 83 87 89 94 98 102 104 106 104 104 104 108 112 108 112 110 110 114 112 110 112 110 110 108 110 110 114 114 112 110 110 112 108 104 104 104 106 108 106 102 100 96 91 87 89 89 91 89 91 89 94 89 87 87 89 87 89 87 91 96 94 91 89 87 83 79 75 75 75 79 83 83 79 75 73 75 75 75 77 75 73 71 68 66 68 68 71 73 73 73 71 75 79 83 79 75 71 73 77 81 83 87 89 89 89 85 85 83 85 83 83 85 85 83 81 85 85 87 87 89 91 96 98 98 98 96 91 89 87 83 79 85 81 79 77 75 73 68 66 66 68 66 66 62 58 60 60 62 64 66 64 60 60 58 58 58 62 62 62 60 62 60 62 66 64 64 62 64 64 62 64 60 62 62 60 56 54 50 48 50 54 56 58 56 52 50 52 56 56 58 62 60 60 64 66 68 71 73 73 71 68 71 75 81 83 87 91 96 94
