55 57 59 61 62 62 60 59 58 58 59 58 59 61 63 62 61 62 64 65 65 64 64 63 62 62 63 64 65 63 61 59 58 58 56 56 56 56 58 58 57 56 55 55 54 57 55 54 54 56 57 59 59 60 61 60 60 61 60 60 60 61 63 65 63 64 64 65 67 69 70 72 73 74 73 75 77 75 75 73 71 72 74 76 77 76 77 76 76 76 76 78 79 79 79 79 78 79 78 76 74 75 76 76 76 76 75 76 78 76 76 75 75 75 73 74 74 73 72 70 70 72 74 75 74 74 75 74 74 76 77 79 78 80 80 79 77 76 74 72 71 71 71 70 68 67 65 63 61 59 57 56 55 53 54 54 54 54 54 52 51 52 53 55 56 55 56 57 59 60 61 60 58 58 57 55 55 55 57 56 56 58 60 62 64 66 68 70 71 70 68 66 64 64 64 64 65 67 68 68 70 70 72 73 73 71 69 67 67 69 69 70 68 66 64 65 65 66 68 69 67 65 63 62 60 60 60 61 61 63 63 61 61 61 62 63 65 66 67 66 64 65 63 64 65 67 65 65 65 65 63 64 65 64 64 63 62 62 62 62 62 63 63 63 62 64 65 67 66 66 67 67 65 65 66 68 68 69 70 68 66 64 62 60 60 59 57 55 53 52 54 54 56 57 58 58 57 57 57 59 57 59 57 57 58 59 60 60 58 60 62 63 62 63 64 63 61 60 59 58 56 56 58 56 56 58 56 55 53 52 54 55 56 55 55 54 52 54 53 54 54 55 55 56 57 58 60 60 59 57 56 54 54 54 56 57 58 60 60 59 59 58 58 57 57 57 57 56 54 55 55 53 52 50 50 50 52 53 54 56 55 55 55 55 55 56 58 60 61 63 64 66 67 66 65 63 62 64 63 65 64 66 67 68 70 72 71 72 71 73 75 76 77 77 77 78 76 78 80 82 83 82 80 79 77 75 74 74 72 72 71 71 69 71 70 72 71 69 68 66 65 67 69 71 70 68 67 66 65 64 63 63 62 62 61 59
54 56 58 59 61 63 61 60 59 59 60 60 61 63 62 62 61 63 65 67 65 65 66 64 63 64 65 65 67 65 63 61 59 57 56 57 57 57 58 56 55 55 56 56 55 55 54 54 54 56 58 59 59 58 59 58 58 59 59 60 60 62 61 63 61 62 63 63 65 67 69 71 71 72 73 75 75 73 73 71 71 72 73 75 75 75 77 76 77 77 77 79 79 80 80 78 78 78 78 76 74 73 74 75 74 75 75 76 77 76 76 76 75 75 73 73 72 72 71 70 70 70 72 73 73 74 74 72 72 74 76 77 77 79 78 78 76 76 74 72 71 70 70 68 68 66 64 62 60 58 57 55 53 52 52 53 53 53 52 50 49 51 52 54 56 55 55 55 57 59 59 61 60 59 57 57 56 55 57 56 57 59 60 62 64 66 67 69 70 69 67 66 65 65 65 64 64 66 68 68 70 71 71 72 71 69 68 68 67 68 69 70 69 67 66 67 66 68 69 69 67 67 65 64 62 62 62 62 63 64 64 62 61 62 63 63 64 65 66 66 64 64 63 63 64 65 63 65 64 64 64 65 66 64 63 61 60 60 60 60 60 61 61 61 61 62 64 66 67 66 66 65 64 64 66 66 66 67 68 66 64 62 61 59 58 57 55 53 51 50 52 54 56 58 59 58 57 58 58 59 57 58 57 55 56 57 58 58 56 58 60 61 61 61 62 63 63 62 60 58 56 57 58 56 55 56 56 55 53 54 55 56 55 53 53 54 52 53 54 55 55 56 56 57 58 60 60 58 58 57 57 55 54 56 57 59 60 58 58 57 57 56 58 58 57 59 57 55 55 56 57 55 53 51 51 51 52 54 55 55 53 53 53 53 54 56 58 60 61 63 64 65 65 65 63 62 62 63 62 63 63 65 66 67 68 70 71 72 73 74 75 77 79 78 78 77 77 79 81 83 82 82 81 79 77 76 74 73 71 70 70 70 69 70 72 72 70 69 69 68 66 66 68 69 68 66 65 64 63 62 61 62 60 60 59 57
56 58 59 61 61 62 62 62 61 61 61 60 62 64 64 63 62 63 64 66 65 67 67 66 65 65 67 67 67 66 65 63 61 59 58 59 59 57 57 56 56 57 58 57 56 56 56 55 54 54 56 58 58 58 57 56 56 58 59 58 58 60 60 61 60 60 61 61 63 65 67 69 71 71 71 73 73 73 72 71 71 71 73 74 76 76 78 78 79 78 78 80 80 82 81 79 79 78 78 76 75 74 75 74 74 75 75 76 77 77 77 77 77 76 74 74 73 74 72 71 70 71 73 74 75 74 72 71 70 72 74 75 75 77 76 76 76 75 74 72 70 69 69 69 68 65 63 61 59 57 56 54 53 53 54 54 54 53 51 49 49 50 51 53 55 56 57 56 58 60 61 62 61 60 59 59 58 57 59 57 59 59 61 61 63 65 67 68 68 68 66 65 65 66 65 65 65 67 69 69 69 70 72 71 71 71 69 69 68 70 69 71 70 68 67 68 68 70 70 71 69 68 66 66 64 64 64 64 65 65 65 64 63 64 64 63 63 63 64 66 65 65 64 64 65 64 63 64 66 65 64 65 64 63 61 60 58 58 58 59 59 59 59 59 59 61 63 64 66 64 64 64 64 64 66 68 66 65 66 65 64 62 62 60 58 55 54 52 50 50 52 54 55 57 59 59 58 59 60 59 58 57 55 53 54 55 57 56 55 57 58 60 61 61 63 64 64 63 61 59 58 58 58 56 55 55 54 53 54 55 56 57 57 55 54 56 54 55 55 57 56 57 58 59 59 61 59 59 59 59 58 57 55 57 58 59 58 57 57 55 55 55 56 56 55 57 58 57 56 57 57 56 54 53 52 51 52 54 54 53 51 52 53 55 54 56 58 60 62 63 65 66 65 65 64 63 63 62 62 62 63 64 66 67 69 71 71 73 73 74 76 77 79 78 78 77 79 80 82 82 82 82 82 80 78 77 75 73 72 70 70 71 71 71 70 72 70 71 70 69 67 67 69 68 67 65 63 62 61 60 59 60 58 58 57 58
61 61 61 62 62 62 62 63 62 62 61 61 63 64 65 64 63 64 65 66 67 68 68 68 66 67 68 69 68 68 66 64 62 61 60 60 60 59 57 57 58 59 60 59 57 58 57 57 55 54 56 58 57 57 55 54 55 56 58 57 58 58 59 60 58 59 61 61 63 65 66 68 69 69 70 71 72 72 72 73 73 72 73 75 76 77 79 79 80 80 80 79 79 81 81 80 79 79 78 77 76 74 74 75 74 76 75 76 76 78 77 77 76 75 75 75 73 73 71 73 72 72 74 75 73 73 71 71 70 72 73 74 73 75 75 77 76 74 72 71 70 69 71 68 66 65 63 61 59 57 55 55 53 54 54 56 55 53 51 49 51 50 52 54 55 55 56 58 59 60 61 62 63 61 61 60 59 58 58 59 59 60 61 62 62 64 66 67 68 68 67 67 67 67 67 66 67 67 68 69 70 71 72 72 71 71 70 71 69 71 71 70 70 70 69 70 70 71 72 71 70 70 68 67 66 66 66 65 67 67 66 66 65 66 64 63 64 64 65 66 67 65 64 64 64 65 64 65 66 66 66 64 63 61 59 59 58 58 56 58 58 57 57 58 58 60 62 63 64 64 64 64 64 64 65 66 66 65 64 63 62 61 60 60 58 56 54 52 51 52 52 52 54 56 58 58 59 59 61 60 58 57 56 55 55 56 56 56 55 56 57 58 60 62 63 62 63 62 61 60 59 59 57 56 54 54 54 53 52 54 55 56 58 56 56 56 55 56 56 58 57 58 59 59 60 61 60 60 59 61 59 59 57 59 57 59 57 55 55 54 53 53 55 56 55 56 57 59 58 58 57 56 54 55 53 53 54 55 55 53 51 52 54 56 56 57 58 60 62 63 64 66 67 66 65 65 63 62 62 63 65 66 67 69 71 72 73 74 74 76 77 79 78 78 78 78 80 82 83 84 82 81 80 80 79 77 76 74 72 71 71 73 72 71 71 72 71 72 70 69 68 66 67 67 65 63 62 61 60 58 58 58 59 57 57 57
65 62 63 64 62 63 63 63 62 62 63 61 62 64 64 63 63 65 65 67 68 69 70 70 68 68 70 70 70 70 68 66 64 63 62 62 62 60 58 59 60 60 61 61 59 59 58 58 57 56 56 56 55 56 55 54 55 56 57 57 58 57 57 58 59 60 62 62 64 65 67 69 68 67 68 70 70 72 73 75 75 74 75 76 77 78 80 81 80 80 81 80 79 81 81 80 78 79 78 79 77 75 74 76 74 75 76 78 77 79 79 78 77 76 74 74 72 72 71 72 73 73 74 73 72 72 72 73 72 74 74 73 72 73 75 76 76 75 74 73 71 71 72 69 68 66 64 62 60 58 56 54 54 54 55 56 55 53 51 50 51 52 53 55 56 56 57 59 61 61 62 61 62 63 63 62 61 59 59 60 60 61 62 63 64 66 68 69 69 69 68 68 69 69 68 66 66 67 69 70 71 72 73 73 71 72 72 73 71 72 71 71 71 70 71 72 71 72 73 73 71 71 70 69 68 67 68 67 69 69 68 68 67 68 66 65 64 65 66 64 66 66 66 65 65 67 66 66 66 68 67 65 63 61 59 58 57 56 56 57 56 56 56 57 59 59 61 63 63 64 65 64 64 66 67 65 65 64 63 61 60 60 59 59 58 56 54 52 53 54 53 52 53 55 56 58 59 59 60 61 59 58 56 54 54 55 55 55 55 56 56 58 60 61 62 61 62 62 61 61 60 59 57 56 55 54 55 53 52 53 55 57 58 56 56 56 55 55 57 58 58 60 61 61 62 63 61 60 60 60 60 59 57 58 57 58 56 55 55 54 53 53 54 55 54 55 57 58 60 59 57 56 55 54 53 55 56 57 56 55 53 54 54 56 57 59 60 61 62 63 64 66 68 68 67 65 63 64 63 65 66 67 68 70 72 74 74 75 76 78 77 78 79 77 79 79 81 82 84 82 81 81 81 79 78 76 76 76 74 72 73 72 72 71 71 72 71 70 69 68 68 66 65 65 63 63 63 61 59 59 59 60 59 58 59 57
65 64 65 66 64 65 63 65 63 63 64 63 62 63 65 65 65 67 67 68 68 69 70 72 70 70 70 70 69 69 69 67 65 65 64 63 62 62 60 60 60 61 61 62 61 61 59 59 59 58 57 55 55 55 55 56 54 55 56 55 57 56 58 59 59 61 62 60 62 64 65 67 66 66 67 69 70 72 74 76 76 75 75 76 77 78 80 81 81 82 82 81 80 81 80 79 78 77 77 78 77 76 76 76 75 76 78 80 79 80 80 79 78 76 75 73 72 73 72 72 73 75 74 73 72 73 73 73 74 75 74 72 72 74 75 76 77 77 75 73 72 72 73 71 68 66 65 63 61 59 58 56 54 55 55 55 54 52 52 51 53 53 55 56 56 56 57 59 61 62 61 61 61 62 64 64 62 61 60 61 63 62 63 65 66 68 69 70 71 71 70 70 71 71 70 68 66 68 70 71 71 72 72 72 72 72 73 75 73 74 73 71 71 71 72 74 73 74 75 73 73 72 71 71 70 69 70 69 68 67 69 70 68 70 68 67 66 66 66 65 67 68 68 66 67 68 68 67 66 67 68 66 64 62 60 59 58 58 56 56 55 55 56 57 59 60 62 64 63 64 64 65 65 66 67 65 64 64 63 62 61 61 60 60 58 57 55 53 54 55 55 53 53 54 56 58 57 57 58 59 57 58 58 56 55 55 57 56 55 57 57 57 58 60 60 60 62 64 63 61 60 60 58 57 55 55 54 52 52 52 53 55 56 56 54 54 55 56 58 60 60 61 63 62 63 61 60 59 59 61 62 60 59 58 57 56 55 55 54 54 54 53 55 56 54 54 55 57 59 59 57 56 55 55 55 56 57 59 58 56 54 56 56 57 59 60 62 63 63 64 66 67 69 69 67 65 64 65 65 66 66 68 69 71 73 75 75 76 78 79 79 79 78 77 77 78 80 81 83 81 81 82 80 79 77 76 76 74 73 73 72 70 70 72 72 71 69 68 68 67 66 66 65 63 62 63 62 61 59 59 60 60 59 58 57 57
67 66 66 67 65 64 64 65 64 64 65 64 63 63 65 66 67 68 69 69 70 69 71 71 72 72 70 70 71 71 69 68 66 64 64 62 61 61 59 59 59 59 61 62 61 62 61 61 60 59 58 56 56 56 55 56 54 53 54 53 55 55 57 58 60 61 62 61 63 65 67 68 66 66 68 69 70 72 74 75 77 75 74 75 76 78 79 81 82 81 81 80 81 79 78 80 78 76 77 78 78 77 77 76 76 78 79 80 80 80 79 79 78 77 76 74 72 73 73 72 71 73 74 72 72 72 73 71 72 74 72 73 73 75 77 77 78 76 75 73 71 71 73 70 68 66 64 63 61 59 57 56 54 53 53 54 54 53 53 53 54 55 57 57 55 55 57 59 61 61 62 61 62 64 65 66 64 63 62 63 64 64 64 66 68 69 71 72 72 72 71 72 72 73 71 70 68 70 72 72 73 74 72 72 72 73 73 74 75 73 73 73 72 72 71 72 72 74 73 72 74 72 72 73 71 71 71 70 68 67 68 70 68 69 68 68 67 67 67 67 65 67 69 68 69 70 70 69 68 68 68 66 65 63 62 60 59 57 55 55 54 53 55 57 59 61 62 62 62 64 66 66 65 65 66 64 62 62 63 63 62 61 61 61 60 58 56 55 56 56 54 54 55 54 54 56 55 55 57 57 56 58 58 57 56 55 56 55 56 56 56 57 59 60 60 61 62 62 64 62 62 61 59 57 56 55 55 54 52 52 52 53 55 56 55 56 56 57 59 61 61 63 64 63 62 62 61 60 60 62 60 59 57 57 57 57 56 55 55 55 55 54 54 54 53 53 53 56 57 59 58 57 56 56 56 58 58 60 60 58 56 58 57 58 60 62 63 64 64 65 67 67 68 67 65 63 63 65 64 65 67 69 70 72 72 74 76 78 78 79 79 79 80 79 77 79 80 81 81 82 81 81 80 78 76 75 74 74 72 72 71 70 71 70 70 71 69 68 67 68 67 66 65 63 62 63 63 62 61 59 59 58 57 56 55 55
70 68 68 68 66 64 65 66 65 64 66 65 65 65 65 67 68 70 70 70 70 70 72 72 72 72 71 71 70 69 68 67 66 65 65 64 63 61 59 60 59 57 60 61 62 63 63 63 62 60 59 57 56 58 57 56 54 52 53 53 53 54 56 58 59 61 63 63 64 65 67 66 66 67 67 68 70 72 74 75 75 74 74 76 75 76 78 80 81 80 80 79 79 80 79 79 77 76 77 77 79 79 78 78 78 79 78 78 78 78 77 77 77 76 74 72 71 71 71 70 70 72 73 73 72 71 71 71 71 73 72 72 73 74 75 77 76 74 73 72 70 70 71 70 68 66 64 63 61 58 57 55 53 53 53 53 53 54 54 55 56 56 56 57 55 54 56 58 60 60 61 62 64 65 67 67 65 64 64 65 66 65 66 68 69 71 73 74 74 74 73 73 73 75 73 71 70 72 73 74 75 75 74 74 74 75 74 73 73 72 73 73 73 72 71 71 71 72 71 72 74 73 73 73 71 71 71 72 70 68 68 68 67 69 69 70 69 69 69 67 66 66 67 69 71 70 69 67 67 67 66 65 63 61 61 60 59 57 55 55 55 54 55 56 58 59 61 63 63 65 64 65 64 64 65 63 62 61 62 63 61 61 61 62 62 60 58 56 57 56 55 55 54 54 53 54 53 53 55 56 55 56 56 57 55 55 54 54 56 57 57 57 59 60 61 62 63 62 62 63 61 61 59 58 56 56 54 53 52 52 52 53 53 55 56 58 58 59 61 63 63 63 63 63 63 62 61 60 61 61 61 59 58 56 56 57 56 57 55 56 57 55 54 55 54 55 54 55 57 57 59 58 57 58 58 57 56 58 59 58 58 59 58 60 61 63 64 66 66 66 67 68 67 65 65 64 64 63 63 65 67 69 70 72 72 73 75 77 77 77 77 78 80 78 78 79 78 79 81 82 82 81 80 78 76 74 73 73 71 73 71 71 70 68 68 70 69 67 66 66 68 67 65 64 62 64 62 61 60 58 57 58 56 55 53 53
68 67 68 67 65 65 65 65 63 65 65 66 67 67 67 68 70 71 69 69 70 72 70 71 71 70 71 71 71 69 67 66 66 65 64 64 64 62 60 59 58 58 59 61 63 64 63 63 61 61 60 59 57 57 55 54 53 52 53 53 54 54 56 57 59 60 62 63 64 66 68 67 65 66 68 70 71 72 72 74 76 75 76 75 75 76 77 79 79 81 81 80 78 79 79 79 78 77 78 79 80 79 77 76 78 77 77 78 77 77 76 76 75 75 73 71 70 69 69 68 68 70 72 73 72 72 71 70 70 72 73 71 71 73 73 75 74 72 71 70 68 68 69 68 67 65 63 61 59 57 55 53 53 53 54 54 53 54 55 56 55 55 57 56 55 54 56 58 60 61 62 62 63 65 66 65 65 65 66 66 68 67 67 69 71 73 75 75 76 75 74 73 73 74 74 72 71 73 73 74 76 77 76 76 75 75 74 73 72 72 74 75 73 72 73 71 70 70 70 72 72 74 75 74 73 72 72 73 71 69 69 68 67 67 69 70 71 71 69 68 66 67 66 68 70 69 67 65 66 67 65 65 64 62 61 59 58 56 56 55 55 54 54 54 56 58 59 61 63 64 63 64 64 66 64 63 61 60 60 62 60 61 61 63 61 59 57 57 56 55 57 55 54 55 53 53 52 52 53 55 54 54 54 55 53 53 53 55 55 56 57 59 58 60 62 63 63 62 60 61 59 59 58 57 55 54 53 53 54 52 52 54 54 55 57 59 60 61 63 65 64 65 63 62 62 61 61 61 63 62 62 61 59 58 57 59 57 57 57 57 57 57 56 56 55 55 54 55 57 59 59 57 57 58 59 57 57 58 59 58 58 60 60 62 61 62 64 65 65 67 68 68 66 67 65 65 65 65 63 65 67 69 70 72 73 72 74 75 75 75 76 76 78 78 76 78 76 78 80 81 83 82 80 78 76 74 73 73 71 72 70 70 68 67 67 68 68 68 66 65 67 67 65 64 64 63 61 61 59 57 57 56 55 53 52 51
65 66 68 68 66 66 66 65 64 64 65 65 67 68 68 68 69 69 68 68 69 71 70 69 69 70 71 71 70 68 68 67 66 64 65 65 64 63 61 59 58 60 61 62 64 64 64 62 61 62 62 60 58 56 55 53 52 52 54 55 55 55 55 57 59 61 63 64 65 67 67 66 65 66 68 70 71 73 73 74 74 76 78 76 75 76 78 79 81 82 80 79 78 78 79 80 80 78 80 81 81 80 78 76 76 76 76 77 77 77 76 74 73 74 72 70 68 68 68 67 69 70 72 74 73 73 72 71 71 73 71 70 69 71 72 73 72 71 69 68 66 66 67 66 65 65 62 61 59 57 55 53 53 53 55 54 54 55 56 55 54 53 55 55 54 54 55 57 58 60 60 62 64 65 67 65 64 65 66 68 70 68 69 71 73 75 76 77 78 76 76 75 74 75 75 73 73 72 72 74 76 78 78 77 75 74 73 73 73 73 75 74 72 71 72 71 70 71 72 73 73 74 76 75 75 73 73 71 71 70 68 67 67 69 70 72 71 69 69 67 66 66 66 66 68 68 67 65 65 66 65 63 62 62 61 59 57 57 57 57 56 55 56 55 57 57 59 61 62 64 63 64 62 64 62 63 61 59 58 60 60 62 63 61 59 57 57 56 55 54 55 54 52 53 51 51 51 53 53 54 53 54 54 54 52 52 53 55 54 55 57 58 57 59 60 61 62 62 60 60 58 57 56 56 55 55 54 54 55 54 53 54 54 56 58 60 61 63 65 66 65 64 62 62 64 63 61 61 63 64 62 61 60 59 59 59 58 59 58 57 57 55 55 55 54 54 54 54 55 57 57 56 56 58 59 58 57 57 59 58 58 59 60 61 62 63 63 65 66 68 67 66 65 66 65 66 67 66 64 65 67 69 71 72 72 72 73 74 74 75 74 75 76 78 76 76 76 78 79 81 82 81 80 78 77 75 73 71 70 70 69 68 67 67 67 67 66 66 65 65 67 68 66 64 66 64 62 61 59 58 57 55 53 53 52 50
69 68 70 68 66 66 67 65 65 66 66 67 68 69 69 69 69 68 68 69 71 73 71 71 71 72 72 71 70 69 69 68 66 64 65 66 65 64 62 60 60 61 63 64 63 63 62 62 61 60 62 61 59 57 55 54 53 54 55 56 57 56 56 57 59 61 63 65 66 67 66 67 66 68 69 71 71 72 74 73 74 74 76 74 76 77 79 81 83 83 82 80 78 80 79 80 82 80 81 79 82 80 79 78 76 75 75 76 77 76 74 74 72 72 70 68 67 67 67 67 67 69 71 72 74 73 72 72 73 74 72 71 69 70 71 72 72 70 69 67 66 65 65 65 63 64 62 61 59 57 55 54 55 55 55 54 54 56 55 54 52 52 54 54 55 55 57 58 58 58 59 61 63 64 66 65 64 66 68 70 71 69 71 72 74 76 77 77 79 77 76 76 74 76 75 75 74 73 74 76 77 78 80 78 77 75 73 74 74 74 73 73 71 71 72 71 70 72 73 75 74 75 77 76 76 74 74 73 73 71 70 68 69 70 70 72 70 68 70 68 67 68 67 66 67 66 67 67 66 67 67 65 64 63 61 60 59 59 59 58 57 55 57 56 58 58 60 59 61 63 62 63 63 63 61 62 61 59 59 59 61 62 62 60 58 58 58 56 54 53 54 52 52 52 52 53 53 54 55 55 53 54 56 54 53 54 53 54 53 54 56 58 57 57 59 60 60 61 60 59 58 56 55 55 56 55 54 54 56 54 54 54 54 56 59 60 62 64 66 67 66 64 62 64 66 64 63 62 64 63 62 61 62 61 60 61 59 59 58 59 59 57 56 56 56 55 54 54 54 55 55 57 58 58 60 60 58 57 58 58 58 60 61 62 63 64 64 65 66 67 67 66 65 65 66 68 69 68 66 66 68 69 71 72 72 72 73 74 74 75 76 76 77 76 75 74 75 77 79 81 80 80 78 77 75 74 73 73 71 70 69 68 68 68 67 65 64 64 65 65 67 67 67 66 66 64 63 61 59 58 57 55 54 53 52 51
68 70 68 67 67 67 67 67 67 67 66 66 68 69 68 68 68 69 69 70 71 73 72 72 73 73 72 70 70 71 70 70 68 66 67 67 66 65 63 61 60 62 64 64 63 63 64 63 61 61 61 61 60 58 56 56 54 56 55 55 56 54 56 58 60 62 63 65 66 67 66 68 68 68 70 71 73 72 72 73 75 74 74 74 76 78 79 81 83 83 81 80 78 79 81 81 82 81 80 80 81 79 77 78 78 76 74 74 76 76 74 73 72 73 71 69 68 67 68 68 69 70 72 73 73 71 71 73 73 72 71 71 69 68 69 70 70 69 67 65 64 63 63 63 62 63 61 59 57 57 55 55 57 56 55 55 54 55 54 53 52 53 52 53 55 55 57 58 57 57 58 60 62 63 64 65 66 68 69 71 70 71 72 74 74 75 77 77 78 77 76 77 76 77 76 74 75 73 75 77 79 78 78 77 76 74 74 72 72 72 72 71 70 70 71 72 70 72 73 75 75 77 76 77 76 75 73 73 72 72 71 69 70 72 72 70 68 68 68 67 68 69 69 68 66 66 66 67 68 68 67 66 64 62 60 60 59 60 58 57 56 55 56 58 60 58 60 60 60 61 62 64 65 63 61 61 60 59 59 61 60 60 61 59 58 58 56 56 55 53 52 54 53 53 52 53 55 55 57 57 55 56 56 54 55 55 54 52 53 55 56 58 58 58 59 60 60 59 60 58 57 56 57 55 54 54 54 55 56 56 56 56 55 56 58 60 61 63 65 67 66 64 64 65 67 66 64 63 63 62 61 62 63 62 62 61 61 59 59 61 60 59 57 58 57 56 55 56 55 57 56 56 57 58 59 61 60 58 59 60 58 58 60 60 61 63 63 64 65 67 66 66 65 66 68 70 69 70 68 68 68 70 71 71 72 73 74 76 76 76 75 75 75 74 74 75 76 77 78 79 80 78 76 77 75 74 73 72 71 71 69 68 66 67 65 64 62 63 63 64 66 67 66 66 65 63 62 60 60 59 58 56 54 53 53 53
68 68 68 67 67 69 68 67 68 68 68 67 68 69 70 69 68 70 70 69 70 72 72 74 74 73 72 72 70 71 71 70 69 68 68 66 67 65 63 62 61 63 64 63 63 64 65 64 63 62 63 61 59 58 56 56 54 56 57 57 55 55 55 57 58 60 62 64 66 67 68 68 68 69 71 71 73 72 73 74 74 74 74 76 76 78 79 81 83 83 81 79 78 80 81 83 82 82 81 81 80 78 77 79 79 77 76 74 75 77 76 74 73 73 71 70 69 69 70 70 71 72 71 71 71 73 73 74 73 71 69 69 69 69 71 70 70 69 67 66 64 62 61 61 60 61 60 59 58 58 56 55 55 54 55 53 52 54 53 54 53 52 53 54 56 56 57 57 57 56 56 58 60 61 63 64 66 67 69 69 70 71 73 75 74 74 75 77 78 77 77 79 77 78 76 74 74 74 76 77 78 78 78 79 77 75 73 73 72 72 72 71 71 72 71 71 71 73 73 74 74 76 76 78 77 75 73 72 70 70 72 71 69 71 73 71 69 68 68 67 69 68 68 67 65 66 67 68 70 69 67 65 64 62 61 62 60 58 57 55 55 56 58 59 59 60 61 61 60 62 63 65 66 64 62 60 58 59 60 62 60 59 60 59 57 56 55 55 55 53 53 53 54 54 53 54 56 56 58 59 57 58 57 56 56 55 53 52 52 54 55 57 56 58 60 60 59 58 58 57 56 57 56 54 53 54 54 54 56 57 57 57 55 55 57 59 60 62 64 65 65 63 65 67 69 68 66 64 63 61 61 62 64 63 62 61 59 57 59 61 62 60 59 59 58 57 56 57 56 58 58 58 59 58 58 59 59 58 60 60 59 59 59 60 60 62 63 62 64 65 65 67 67 68 69 68 68 69 68 69 69 70 72 71 73 74 74 74 75 76 76 77 76 75 76 76 74 76 78 78 78 76 74 75 75 75 73 72 70 70 68 67 65 65 64 62 61 62 62 63 64 66 67 65 63 62 60 60 59 58 57 55 54 54 55 54
66 67 67 68 69 70 69 69 68 69 68 67 67 67 69 70 69 70 70 69 68 70 72 74 75 73 73 73 72 72 72 71 69 69 67 66 66 65 64 63 61 62 64 64 63 65 67 66 64 64 62 60 58 57 55 55 55 57 58 57 56 55 56 57 58 60 61 62 64 66 67 66 69 70 71 72 72 71 73 73 73 75 74 76 74 76 77 79 81 81 80 78 78 79 79 81 81 83 83 81 80 78 77 77 78 76 75 74 74 76 76 74 74 75 73 72 70 69 71 72 73 73 72 71 71 71 72 73 72 71 69 68 67 68 70 70 69 68 67 65 63 61 60 60 60 61 60 58 58 59 57 55 54 53 53 52 52 52 52 52 52 50 51 53 55 57 59 57 56 58 58 59 59 61 62 63 65 66 67 68 69 71 73 74 73 75 76 77 79 79 79 81 79 78 76 75 75 75 77 79 79 79 79 78 77 75 74 73 72 72 70 72 73 73 72 71 73 74 75 75 76 78 76 76 75 75 73 71 70 71 70 69 69 71 72 71 70 69 68 68 68 67 66 65 65 67 68 69 70 69 67 65 64 62 62 60 59 57 56 55 55 57 58 60 59 60 62 61 61 62 62 63 64 64 62 60 58 60 61 62 61 59 58 58 56 56 55 55 54 55 54 55 55 55 55 55 57 58 60 58 57 59 59 57 56 55 53 52 51 53 55 56 54 57 58 58 57 56 56 56 56 56 56 54 53 52 52 53 55 57 58 58 56 55 56 58 60 61 63 64 64 63 65 67 69 69 67 65 64 62 62 63 63 62 61 60 58 58 58 59 61 62 60 61 59 57 57 58 57 59 60 60 60 59 58 58 59 58 59 59 60 59 59 60 62 64 62 61 63 64 65 66 66 67 67 68 67 67 69 71 69 70 70 70 72 73 72 75 76 77 77 78 77 77 77 75 75 75 77 76 76 75 73 74 74 75 74 72 70 69 67 65 64 65 63 61 61 61 63 64 66 66 66 64 62 61 59 59 58 57 57 55 54 54 56 56
70 69 68 70 70 72 71 70 70 69 68 69 69 69 70 69 70 71 71 70 69 71 72 74 74 73 75 75 74 73 73 71 70 68 68 68 67 65 64 64 62 64 65 65 65 66 67 67 66 65 63 62 60 58 56 55 55 56 57 57 56 57 56 56 57 59 61 62 64 66 68 67 68 70 70 71 72 71 72 74 74 75 74 75 74 76 78 80 81 82 80 78 78 77 77 79 79 81 82 82 80 78 79 78 78 77 76 75 74 74 74 74 76 76 74 72 71 69 70 71 71 71 71 69 69 71 72 73 71 70 68 68 69 69 68 69 71 70 68 66 64 62 61 62 60 60 60 60 59 58 58 56 54 55 55 54 52 53 52 53 51 50 52 54 56 57 59 57 56 57 58 57 59 60 62 64 66 67 68 69 71 71 73 74 73 75 76 78 79 81 81 79 79 77 77 77 77 77 79 81 81 81 80 78 76 74 73 72 71 70 70 72 74 74 73 72 74 76 76 77 78 79 77 76 74 74 72 71 70 69 71 70 71 73 73 73 71 70 70 69 68 67 65 67 67 69 70 70 72 70 68 66 64 62 63 61 60 58 58 57 56 58 59 59 58 60 60 61 63 63 62 62 62 63 62 61 60 60 62 60 59 60 60 59 57 56 56 55 54 55 55 56 57 57 55 56 58 60 60 58 56 57 57 55 54 55 54 52 51 53 54 55 55 56 56 57 57 57 56 55 56 55 54 53 52 52 54 55 57 59 60 59 58 56 57 58 60 62 64 65 65 65 66 66 67 68 67 67 65 63 63 61 63 62 61 60 59 59 58 59 61 60 58 61 60 59 57 59 58 60 60 62 61 60 59 58 60 59 61 61 62 60 60 60 61 62 61 60 62 63 64 65 65 65 66 67 68 68 69 70 71 72 71 71 73 73 73 75 76 78 78 79 78 78 77 77 76 75 75 75 75 73 73 74 76 76 74 73 71 69 67 65 63 63 63 63 61 62 62 63 65 64 65 63 61 60 58 59 57 58 58 56 55 55 56 57
72 70 70 72 72 73 72 71 72 71 69 71 70 71 70 69 69 71 71 71 70 70 72 74 74 75 73 76 75 74 72 71 69 69 68 69 68 67 65 65 64 65 66 66 65 66 67 68 67 65 63 62 60 58 58 56 55 57 57 58 58 58 57 57 56 58 60 61 63 65 67 68 69 70 70 72 72 71 71 72 74 73 73 74 75 77 78 80 80 80 79 78 77 76 76 77 78 79 80 81 80 80 80 78 77 76 75 74 74 74 73 73 74 74 73 71 70 68 69 70 69 70 70 69 70 70 70 72 70 69 67 67 68 68 68 69 69 68 67 66 65 63 62 61 60 60 62 62 60 59 59 57 56 56 55 55 53 55 53 54 52 51 52 53 54 56 58 56 56 57 58 59 59 60 62 63 65 66 68 69 71 73 75 76 74 75 77 79 80 79 79 80 79 77 78 79 78 78 79 81 82 81 80 78 77 75 73 71 69 71 71 73 73 74 73 74 75 75 76 77 76 77 76 74 72 75 73 72 70 70 70 70 72 74 74 74 73 72 71 71 69 67 65 67 69 70 71 71 71 70 68 67 65 63 63 62 60 60 59 59 58 57 57 57 58 59 61 63 63 65 63 62 61 61 60 60 60 61 60 59 58 58 59 60 58 56 54 54 55 56 56 57 57 56 55 55 57 58 58 57 56 56 55 54 52 53 53 52 53 54 55 56 56 55 54 57 56 55 55 54 54 53 53 53 54 54 56 57 58 60 61 60 60 58 58 60 62 63 65 67 67 66 65 64 65 67 66 65 64 63 63 62 62 61 61 60 59 61 59 61 60 60 59 60 61 60 59 59 59 60 62 63 63 61 59 59 61 61 63 63 63 62 62 60 60 60 60 60 62 61 62 63 63 63 65 66 66 68 68 69 70 71 71 72 72 74 74 75 76 78 80 78 76 76 76 76 75 75 74 74 75 73 73 74 76 76 74 72 70 68 67 65 63 63 62 62 62 63 63 64 63 62 63 62 60 58 58 58 56 56 58 58 56 56 57 56
69 70 71 73 73 75 74 73 74 72 71 73 72 72 72 70 70 71 73 73 71 72 73 75 75 74 74 75 74 73 71 69 68 67 67 68 67 67 67 65 64 66 67 67 66 66 66 68 67 65 64 62 60 59 59 58 57 58 58 59 58 59 58 56 56 57 59 60 62 64 65 67 69 71 72 73 71 70 69 71 72 72 72 73 73 75 77 78 78 79 77 76 76 76 75 76 76 78 79 79 79 80 79 78 76 75 74 73 73 75 73 73 72 73 71 70 68 68 68 68 68 69 71 71 70 68 68 70 69 69 67 67 67 67 67 68 67 66 65 65 64 63 64 62 61 60 62 61 60 61 60 58 57 56 56 56 55 54 54 53 52 52 53 55 55 55 57 56 56 57 57 59 61 60 61 63 64 66 68 69 71 73 74 75 76 77 77 77 78 79 80 79 77 77 79 79 80 80 80 79 80 79 81 79 76 75 73 71 69 70 71 72 74 74 74 75 75 76 76 77 75 75 76 74 73 74 74 73 71 72 71 72 74 75 76 75 74 73 72 71 69 67 66 66 68 70 70 71 70 70 68 66 65 64 65 63 61 61 61 61 60 58 58 58 58 59 61 62 64 63 62 60 59 59 58 59 58 59 59 58 57 59 61 59 58 56 55 54 55 55 55 56 57 56 56 55 56 56 58 58 56 54 54 52 50 52 51 53 55 56 56 57 56 55 55 57 57 57 56 54 53 53 54 54 55 56 57 58 60 62 62 60 61 60 58 59 61 63 65 67 69 67 65 64 65 66 67 65 65 65 64 64 63 62 61 60 59 60 60 61 60 59 59 60 61 61 60 59 59 59 61 62 63 61 60 60 60 62 64 64 63 63 62 60 58 58 58 59 61 59 61 62 62 62 64 65 67 69 69 70 69 70 72 73 72 73 73 75 76 77 79 78 77 75 76 75 74 73 74 73 73 73 73 75 75 76 75 73 71 69 67 65 63 61 61 62 64 64 62 64 62 61 62 62 61 60 58 56 55 57 57 57 58 57 56 55
66 68 70 72 74 76 76 75 76 74 73 75 74 73 74 72 71 72 74 74 72 74 75 76 75 74 74 75 75 73 71 69 67 65 68 67 66 67 66 65 65 67 68 66 66 67 66 66 67 65 63 61 60 61 59 59 58 58 60 60 60 61 59 58 58 58 58 58 60 62 64 66 68 69 71 73 72 70 69 70 71 72 71 71 71 73 75 76 76 77 76 75 74 74 74 75 76 76 77 78 78 79 78 78 76 75 74 74 73 74 74 73 71 71 70 72 70 69 69 68 68 70 70 70 67 66 68 69 68 68 68 67 66 65 65 67 66 65 64 63 62 64 62 61 60 62 62 60 60 62 61 60 59 57 56 54 54 52 52 52 52 52 53 55 57 57 58 57 57 57 58 60 60 61 62 63 65 67 69 70 72 73 75 76 77 79 79 78 77 77 78 80 78 78 80 81 80 79 78 78 78 78 79 77 76 74 73 71 70 72 71 73 74 74 74 76 76 76 75 75 74 74 75 73 73 75 76 74 73 73 73 72 74 76 77 75 75 73 72 70 68 66 66 67 68 70 70 70 68 70 69 67 66 64 66 65 63 63 63 62 61 59 58 58 58 59 61 63 63 63 61 59 57 57 57 57 56 57 58 57 56 58 60 58 56 56 55 54 54 55 56 57 57 57 56 56 56 56 57 56 56 54 52 51 51 51 51 53 55 55 57 56 56 56 57 58 57 58 57 56 54 54 56 56 57 58 59 59 60 61 61 62 61 60 60 60 61 63 65 67 69 67 66 66 67 67 69 67 66 66 66 65 64 63 62 60 59 61 60 61 61 60 60 61 63 62 62 60 60 60 61 62 62 60 59 60 60 62 64 63 62 62 60 58 57 56 56 57 59 58 59 60 60 62 63 65 67 69 69 68 68 70 72 71 71 73 74 76 77 78 79 78 77 75 75 74 72 71 73 71 72 72 73 75 74 76 74 72 70 68 65 63 62 60 60 62 62 63 62 62 60 59 61 63 62 60 58 56 55 55 56 56 58 59 57 55
68 70 72 74 75 77 76 75 76 76 75 74 72 75 74 72 71 73 74 73 72 73 75 77 75 74 72 74 74 72 70 68 67 66 66 67 66 67 66 66 67 68 70 68 66 68 67 67 68 66 64 62 62 62 61 60 60 60 61 62 62 62 61 60 59 58 59 59 60 61 63 65 67 69 70 72 73 71 70 70 69 70 71 70 69 71 73 74 75 75 74 73 73 73 74 74 74 75 75 76 77 77 77 76 78 76 74 73 73 74 74 72 71 70 70 71 72 71 70 70 69 69 68 68 66 66 66 67 68 70 69 67 66 66 66 66 66 66 64 63 61 62 60 60 59 61 62 61 60 61 61 62 60 58 56 55 54 52 54 54 54 54 55 56 58 58 59 58 59 58 59 61 62 62 63 65 67 69 70 72 73 73 75 76 78 80 78 77 77 78 78 79 79 79 81 80 80 79 79 79 79 78 78 78 76 76 75 73 72 73 73 73 74 76 75 77 77 76 75 74 73 73 74 73 74 75 77 76 75 75 75 73 73 75 76 75 75 74 72 71 69 67 66 68 69 68 70 70 69 69 70 69 68 66 68 66 65 65 63 64 62 60 59 59 60 61 62 64 63 62 61 60 58 56 55 57 57 58 56 56 54 57 59 59 57 57 55 55 55 56 57 58 59 59 57 57 57 56 56 55 54 53 53 53 53 53 53 55 56 57 57 56 58 58 59 60 58 58 58 57 56 56 58 58 59 61 60 61 62 63 63 63 62 60 62 61 63 65 67 68 70 69 68 67 68 68 70 69 67 67 68 66 64 64 63 62 60 61 61 62 62 61 62 63 65 63 64 62 62 61 61 62 62 61 59 61 62 62 62 62 60 60 58 57 57 57 56 58 58 58 57 60 60 62 63 64 66 68 67 67 67 69 71 72 73 73 75 77 79 78 80 78 76 75 76 74 72 71 71 69 70 71 72 73 73 74 72 70 68 66 64 62 61 60 60 60 61 62 63 61 60 59 60 62 61 60 59 58 56 57 56 58 59 57 56 54
71 71 72 74 75 76 75 75 75 75 74 73 73 74 72 72 71 72 74 75 73 75 75 76 76 74 73 75 74 72 70 69 67 68 66 66 67 67 67 67 69 70 71 69 67 69 67 69 68 67 65 64 64 63 63 62 61 62 62 64 63 62 61 61 60 59 60 60 61 63 65 66 68 70 71 72 73 72 71 70 69 69 69 68 68 69 71 73 73 73 73 72 71 73 73 73 74 73 73 74 76 75 75 75 77 76 75 75 74 76 75 74 73 71 71 72 74 72 72 72 70 68 67 67 66 67 66 68 70 70 68 67 66 68 68 68 67 65 64 62 61 61 59 59 59 59 60 61 62 63 62 61 60 59 57 55 53 52 54 55 56 56 56 58 59 58 58 57 58 58 58 60 62 63 65 67 68 70 72 74 75 74 76 77 79 80 79 79 78 79 78 79 77 79 80 80 81 79 79 80 80 79 79 79 78 77 75 74 74 75 74 73 74 75 76 78 79 77 76 75 73 74 72 74 75 76 76 77 77 76 75 74 74 74 74 75 73 73 72 71 70 69 67 68 69 69 69 69 69 71 70 68 68 67 68 68 66 67 65 65 64 62 60 61 61 62 64 66 64 62 61 60 59 57 56 57 55 57 56 55 55 56 57 58 56 56 54 54 54 55 55 57 59 59 58 59 57 56 57 55 54 53 53 54 55 55 55 56 58 59 57 57 58 60 59 60 59 60 60 59 57 58 59 60 61 63 62 63 63 64 63 61 61 62 63 62 64 66 67 69 70 71 69 69 68 68 70 69 68 67 67 66 66 64 63 63 62 62 63 62 61 63 62 62 63 63 62 63 63 62 62 64 62 61 60 62 63 62 61 60 59 58 57 55 57 59 57 59 58 58 58 60 62 63 64 66 67 66 65 66 67 69 70 72 72 74 75 77 77 77 78 78 76 75 74 73 73 72 70 69 68 69 70 71 71 72 70 68 66 65 63 61 59 60 58 59 60 61 61 60 60 60 59 61 61 62 60 60 58 58 57 58 58 56 54 54
73 72 74 76 76 77 76 75 73 74 75 75 74 73 73 73 72 73 75 75 74 76 76 78 77 75 73 74 73 71 69 69 68 68 67 68 68 68 68 69 71 71 69 68 68 69 69 70 68 67 65 64 65 65 64 63 61 61 61 63 61 60 60 60 60 60 61 61 62 64 66 68 70 71 72 74 74 72 71 71 69 68 68 66 68 69 70 71 71 72 73 72 70 71 72 71 72 72 72 72 74 73 73 75 75 77 76 74 72 74 76 76 74 73 72 72 74 74 73 73 71 69 68 67 66 67 66 67 69 70 68 68 66 68 70 69 67 66 65 63 61 59 59 59 57 57 58 60 61 61 61 61 61 59 57 55 54 53 55 56 57 58 56 58 60 60 58 56 56 58 60 62 63 65 67 69 70 71 72 74 75 76 76 78 78 79 79 81 80 80 79 78 78 80 81 82 80 78 78 79 79 79 78 80 79 78 76 76 76 76 75 73 74 76 77 77 78 78 76 74 73 73 73 75 77 78 77 76 76 76 74 74 75 73 73 73 72 72 72 71 71 70 68 69 70 69 68 67 67 69 68 67 67 67 68 67 67 68 66 65 63 62 62 61 62 64 64 64 63 61 61 60 58 57 56 55 53 55 57 56 55 55 56 56 55 57 56 55 54 54 56 56 57 58 59 59 57 57 57 55 53 53 54 56 57 57 57 58 60 61 59 59 59 60 60 61 61 61 61 61 59 60 61 62 63 64 64 65 65 66 64 63 63 64 65 64 64 66 67 68 68 70 68 66 66 67 68 68 69 67 67 67 67 65 63 62 60 62 62 62 61 62 64 64 62 62 61 62 63 64 64 64 63 62 62 62 62 62 62 60 58 57 56 56 57 58 57 59 60 59 60 58 61 62 64 65 66 66 65 67 68 70 69 71 72 73 75 75 75 75 77 76 76 74 73 75 73 73 71 69 68 67 69 69 69 70 69 67 65 63 62 60 59 60 59 61 60 60 59 59 59 60 59 61 59 60 58 58 59 57 58 58 56 55 54 54
71 72 74 76 77 76 75 74 73 73 74 74 72 74 73 73 72 74 74 75 74 74 76 76 78 76 74 73 72 72 71 71 69 69 69 70 70 70 70 71 72 72 71 70 70 69 71 70 69 67 66 65 65 66 66 64 63 64 62 63 63 61 61 61 62 62 62 62 63 65 67 68 68 70 71 73 73 72 71 71 70 69 68 67 68 68 68 70 70 72 72 71 69 70 70 69 70 71 70 71 72 72 74 75 76 75 75 73 72 72 74 76 74 75 74 73 74 75 74 75 73 71 69 68 68 68 67 66 67 68 68 70 68 69 71 70 68 66 65 63 61 59 60 58 56 58 58 58 59 60 61 61 59 58 56 54 53 54 55 56 57 58 58 60 59 59 58 57 58 60 62 64 65 66 67 69 70 71 72 74 74 74 76 77 77 79 80 81 80 81 81 80 79 80 82 83 81 79 79 80 79 77 77 79 78 77 76 75 75 77 76 75 74 74 76 77 77 78 76 74 73 74 75 76 75 77 76 75 75 74 74 75 73 72 72 72 71 71 71 72 72 72 70 68 68 67 66 65 66 67 68 67 67 69 69 68 68 67 65 64 64 64 63 62 63 65 64 63 61 60 61 59 57 55 56 55 54 54 56 54 54 53 55 56 55 56 57 57 56 55 55 55 56 57 58 60 59 58 57 56 55 54 56 57 59 59 58 59 60 62 61 61 60 61 60 60 60 62 62 62 61 61 63 64 65 66 66 67 67 67 65 65 64 65 63 65 64 65 66 67 66 68 66 65 64 65 66 66 67 67 68 67 67 66 64 62 60 62 62 62 62 63 62 63 61 61 60 61 62 64 64 64 63 64 63 62 62 61 61 61 59 57 56 56 58 59 58 60 60 61 60 59 59 61 62 63 65 66 66 67 67 68 68 69 71 72 73 73 73 73 75 74 74 73 73 74 72 72 72 70 68 67 68 68 69 69 67 65 63 61 61 61 61 62 61 61 60 59 58 57 59 59 61 60 59 60 59 60 58 57 59 57 55 54 53 52
73 74 76 77 77 76 74 74 73 74 74 73 73 73 73 73 72 72 73 74 76 75 75 75 76 75 75 75 74 74 72 72 71 71 71 71 72 71 72 73 74 72 70 71 71 70 72 71 70 68 68 67 67 67 67 67 65 66 65 65 64 63 63 62 63 64 64 64 64 64 66 68 68 69 70 72 73 73 72 70 69 69 68 67 67 67 67 69 69 71 70 71 69 69 68 67 69 70 70 72 73 73 75 77 75 74 74 73 72 74 74 75 75 76 76 75 75 76 75 76 74 72 71 70 69 68 66 66 67 66 67 68 68 69 70 69 68 66 64 62 60 61 60 58 56 58 58 57 59 60 60 60 58 56 54 53 53 53 53 54 55 57 58 60 59 58 58 59 60 61 63 64 66 67 68 70 71 72 74 76 76 76 77 78 78 78 79 81 82 81 81 80 80 81 83 82 82 81 81 80 79 77 77 78 78 78 76 76 77 79 77 77 76 76 76 76 76 76 74 73 72 74 75 77 76 76 75 76 75 74 75 73 71 72 71 70 69 69 70 71 73 74 72 70 69 68 66 66 67 67 66 67 68 69 69 68 67 65 64 62 64 64 64 63 64 65 65 63 61 60 60 58 56 55 56 55 54 55 56 56 55 54 54 55 56 57 58 59 57 56 56 57 57 57 59 58 58 59 58 57 57 56 58 59 61 61 60 61 61 62 62 63 61 60 60 61 61 61 62 64 63 63 64 66 67 68 68 69 67 67 67 66 65 64 64 66 66 67 67 66 65 66 64 63 62 64 64 65 66 68 68 68 66 64 63 61 61 60 61 62 62 61 61 61 59 59 60 61 62 64 65 64 63 63 63 63 62 62 62 62 61 59 57 57 57 59 59 61 62 62 61 59 61 61 63 63 64 66 67 68 67 66 67 69 69 71 72 72 71 72 74 75 74 74 73 72 72 73 72 71 70 68 68 66 68 67 65 63 62 62 63 62 62 64 62 62 61 59 58 58 60 60 61 59 59 60 60 61 60 59 58 57 55 55 55 54
75 75 76 77 76 75 75 74 73 75 74 74 75 74 74 74 73 73 74 76 77 75 75 75 75 77 75 76 75 76 74 74 73 74 73 72 72 72 72 72 72 71 69 69 70 71 71 71 70 70 69 68 68 69 68 69 67 68 67 67 66 65 65 64 64 65 66 65 66 65 67 66 66 67 68 70 72 73 71 69 67 68 67 67 67 67 67 68 68 70 70 70 69 68 68 68 70 71 71 71 73 74 74 75 74 72 72 73 72 74 72 74 74 75 74 74 74 75 75 74 76 74 73 72 71 70 68 67 66 65 67 67 67 68 68 67 66 65 63 61 59 59 58 57 56 56 57 57 58 60 59 58 56 55 53 53 53 55 53 53 55 57 58 60 59 60 59 61 61 62 63 65 67 69 69 71 73 73 75 77 78 76 77 79 78 79 80 81 81 80 81 80 81 81 81 81 80 80 80 78 78 78 78 79 78 79 78 78 79 80 79 78 77 77 76 76 75 74 73 72 70 72 73 75 76 76 75 75 76 74 73 71 70 71 70 70 68 69 71 73 73 75 73 72 70 69 67 66 65 65 66 67 67 67 67 66 66 66 64 63 64 66 66 64 64 65 64 62 62 61 59 58 56 55 55 56 56 56 58 57 57 56 56 57 57 57 59 60 59 58 58 58 57 58 59 57 56 58 58 59 59 58 59 61 63 63 62 63 62 62 64 63 62 60 61 63 63 63 63 62 64 65 66 68 69 69 68 70 68 68 67 68 66 64 65 67 68 68 68 66 65 64 62 61 61 62 62 63 65 67 66 66 64 63 62 61 59 59 60 60 60 59 59 59 57 58 60 61 63 63 65 65 65 64 63 64 63 63 63 64 62 60 59 58 58 59 61 62 63 64 63 61 63 61 62 64 63 65 66 66 67 68 69 70 70 71 71 70 69 71 73 74 75 75 75 73 74 74 73 72 71 69 67 66 66 65 66 64 64 64 64 63 63 65 64 63 62 61 60 59 59 60 61 59 59 61 60 62 61 59 58 56 55 56 54 53
74 74 75 76 74 74 76 76 74 75 75 76 76 76 76 76 74 75 76 77 77 76 76 76 75 76 77 78 76 76 76 76 75 75 75 74 73 74 73 73 71 70 69 69 69 71 72 72 71 71 71 69 69 70 70 71 69 70 69 69 68 67 66 64 64 65 67 66 66 66 68 66 65 67 68 68 69 71 70 68 66 67 67 69 67 67 69 67 67 69 70 70 70 70 69 69 70 71 72 72 74 76 75 74 72 71 71 72 74 73 73 74 73 74 73 73 73 74 74 73 75 74 74 74 73 71 70 69 67 65 65 66 65 67 66 66 66 64 63 61 59 58 56 56 56 58 58 58 57 58 58 57 57 55 55 54 54 56 55 54 54 57 58 60 59 60 61 63 63 62 64 65 67 67 69 70 71 73 75 76 77 76 77 77 77 79 81 79 79 79 80 80 79 80 80 79 79 79 78 77 76 77 79 79 78 79 80 78 78 80 80 79 78 79 77 77 75 73 71 70 70 70 71 73 74 74 75 74 74 73 72 70 70 70 69 68 68 69 70 71 73 74 72 71 69 68 68 66 64 64 66 67 65 65 65 65 64 64 65 64 66 64 67 65 64 64 65 64 62 61 59 57 55 54 56 57 58 58 60 59 59 58 58 59 58 58 60 59 59 58 57 56 56 57 57 57 56 58 60 61 61 60 61 62 62 61 63 64 63 64 64 63 61 61 62 64 64 65 63 63 64 65 67 69 69 70 70 69 68 70 68 68 66 66 66 68 69 67 69 67 65 63 62 60 59 61 61 62 63 65 66 64 63 61 61 60 60 59 58 58 59 57 58 57 58 59 60 62 64 65 66 65 65 64 64 65 64 64 64 63 61 62 60 59 59 61 62 64 65 65 64 63 61 61 62 62 62 63 65 66 68 69 71 71 70 70 69 68 67 69 71 73 74 76 76 74 72 72 73 73 72 70 68 66 65 65 67 66 66 65 64 63 62 63 65 64 64 63 62 60 60 60 60 61 60 60 61 62 61 59 58 57 57 57 55 54
73 73 74 74 74 75 77 75 75 75 77 78 78 76 78 76 76 76 78 79 77 78 76 76 75 77 79 79 77 77 77 77 77 77 76 76 75 74 73 72 71 72 71 71 71 72 74 72 72 73 72 70 70 71 72 73 71 71 72 71 70 68 68 66 64 65 67 68 67 67 67 65 64 65 66 65 67 69 68 66 65 67 68 70 69 67 67 66 66 67 68 69 69 70 70 69 69 70 71 73 72 75 75 73 72 71 72 73 75 75 74 72 72 73 73 73 73 75 73 73 73 75 76 75 74 73 72 70 68 67 66 66 66 67 65 65 64 63 64 62 60 58 57 58 57 59 59 58 57 56 56 56 55 54 53 53 53 55 56 55 55 56 58 59 59 59 60 62 62 63 64 66 68 69 70 72 72 72 74 76 77 78 78 77 77 78 79 79 77 80 79 78 78 78 78 77 77 77 77 77 76 78 79 81 80 80 81 80 79 79 81 79 80 80 78 76 75 73 71 71 71 70 71 71 73 73 74 76 74 72 72 71 72 72 71 70 69 71 71 72 72 72 71 71 71 70 68 67 65 64 64 65 64 64 64 63 63 63 63 64 65 65 66 66 64 63 63 63 62 60 58 57 55 54 55 57 58 60 61 61 61 60 60 61 60 60 59 59 60 60 58 58 57 58 57 57 57 59 60 62 62 61 63 62 62 62 63 64 64 65 64 62 61 61 63 62 64 64 63 63 65 66 68 70 70 70 71 70 70 71 69 68 67 67 66 66 67 66 67 66 64 62 60 59 59 60 60 62 64 65 64 63 61 60 59 58 58 59 57 56 57 57 57 57 58 60 61 62 63 65 65 67 66 65 64 65 64 65 64 62 61 60 60 60 60 62 64 66 64 63 63 62 61 60 60 61 62 62 64 66 67 69 71 71 71 70 68 67 65 67 69 71 73 74 75 73 72 71 71 72 71 71 69 67 66 65 66 67 66 64 63 62 62 63 65 64 65 65 64 62 61 61 61 62 62 62 63 62 60 60 60 58 58 56 55 56
71 72 73 72 73 74 75 74 76 76 78 77 77 78 79 77 78 78 80 80 79 77 76 78 77 78 78 78 78 78 79 79 79 79 78 78 76 75 74 73 73 74 72 73 73 73 75 73 74 75 74 72 71 73 74 74 73 73 73 72 71 70 68 67 65 65 66 66 66 66 65 63 62 63 64 64 66 67 67 66 64 66 67 68 68 68 66 65 67 68 68 69 68 69 68 69 68 70 72 74 73 74 74 73 71 71 72 74 74 73 73 73 72 74 74 73 75 75 73 73 74 76 74 74 74 73 71 70 70 68 67 68 67 68 66 65 63 62 63 62 60 58 57 58 58 58 59 57 56 55 54 56 56 54 53 53 53 53 55 55 55 56 58 60 60 59 61 62 63 63 65 66 68 70 72 74 73 73 74 76 77 79 77 76 75 77 78 78 78 79 78 78 78 78 79 77 77 79 77 76 76 76 78 79 81 81 80 80 79 79 79 80 81 80 78 76 75 73 73 72 73 72 72 72 74 75 75 75 73 73 73 73 74 74 72 71 70 70 72 72 73 73 72 71 72 70 68 66 65 63 63 64 63 64 63 61 61 62 64 65 66 66 65 65 64 63 62 63 61 60 60 58 56 54 56 58 59 61 63 63 63 62 62 62 62 60 60 61 61 61 60 59 59 60 59 59 59 60 61 63 63 63 62 62 63 64 64 65 64 64 63 62 61 61 63 63 64 65 64 64 65 66 68 69 69 70 71 72 72 73 71 70 69 67 66 67 66 66 67 65 63 63 61 60 59 60 62 63 63 63 62 61 60 58 58 58 56 57 55 56 57 57 57 58 59 61 62 64 65 66 66 66 67 66 65 64 65 63 62 62 60 59 60 60 59 60 62 64 64 62 61 62 62 62 62 61 63 63 63 65 67 68 70 70 71 69 67 66 66 67 69 70 72 74 75 75 74 72 71 71 73 72 71 69 67 66 66 67 66 64 63 61 61 63 64 66 65 66 66 64 63 63 63 64 64 64 64 64 62 61 60 59 58 58 57 57
75 73 71 71 72 73 73 73 75 76 78 77 78 80 79 77 77 79 80 80 78 77 78 80 79 79 79 80 78 78 78 78 80 81 79 79 77 76 75 75 74 75 74 74 75 74 75 75 75 76 75 74 73 75 76 76 75 75 75 74 73 71 69 67 66 66 66 68 66 64 63 62 61 62 62 62 64 65 65 64 64 64 65 66 66 66 64 63 66 67 67 68 66 67 67 67 66 68 70 72 74 73 73 72 73 71 73 74 74 72 72 73 71 73 73 75 76 74 74 75 73 75 75 75 73 71 70 68 68 67 67 69 68 68 66 65 63 62 62 61 59 59 58 59 59 60 58 56 54 53 53 54 54 54 54 54 53 54 55 55 55 57 58 60 61 61 63 63 65 63 64 66 68 70 71 73 74 74 74 75 76 77 77 76 76 77 76 78 79 78 79 79 79 80 78 78 78 77 75 74 76 76 77 78 80 81 81 82 80 80 80 81 80 79 78 76 76 75 75 74 74 73 73 73 74 76 75 75 74 73 73 75 75 75 74 73 71 72 74 72 72 73 72 71 72 70 68 66 65 63 63 62 62 63 61 60 60 61 63 64 66 66 65 64 64 62 62 61 60 60 58 56 54 53 55 57 59 60 62 64 64 64 64 64 63 62 62 62 63 63 61 61 61 62 61 61 61 62 63 64 64 65 64 64 65 66 66 65 65 66 65 63 62 62 61 63 62 64 64 64 66 67 69 68 68 70 72 73 73 74 73 71 70 68 66 66 66 66 67 65 63 64 62 61 61 61 63 63 61 62 61 59 58 56 56 56 55 55 55 56 57 59 57 59 60 62 63 64 66 67 66 67 66 66 65 64 63 62 60 61 59 58 59 59 58 59 61 62 62 60 60 60 61 61 61 61 61 62 62 64 65 66 68 69 69 68 68 67 67 67 69 71 73 73 73 74 76 74 73 72 73 73 72 70 69 68 67 66 65 64 62 60 60 62 63 64 64 65 66 64 64 65 65 66 66 66 65 65 64 62 60 60 59 59 59 59
73 72 70 69 71 72 73 73 75 76 78 78 79 80 81 79 79 81 82 80 78 78 80 81 80 79 80 79 77 77 77 78 80 81 80 79 79 78 77 77 76 76 76 75 75 74 75 76 76 77 77 75 75 77 77 78 76 77 77 75 74 72 70 69 67 67 67 67 65 64 62 61 59 61 61 60 62 63 64 62 62 62 63 64 65 66 64 64 65 66 66 66 64 65 66 66 65 67 69 71 73 73 71 71 71 72 73 73 73 73 74 72 71 72 73 75 76 75 76 74 73 74 76 76 74 72 70 68 66 66 66 68 66 67 65 64 62 62 61 60 58 57 58 59 59 59 57 55 53 52 54 52 55 55 56 56 55 55 55 56 57 57 58 59 61 62 64 64 64 64 65 67 69 70 72 74 75 74 75 77 77 78 77 75 77 76 76 76 78 76 77 79 80 82 80 79 77 77 75 75 76 77 78 79 79 81 81 81 82 82 80 82 81 79 79 77 77 77 77 76 74 74 73 74 76 74 74 74 74 75 75 77 77 76 75 74 72 74 75 74 72 71 70 70 70 70 69 67 66 64 64 63 61 61 60 61 60 61 63 64 65 67 66 65 63 62 62 63 61 60 58 56 54 53 54 57 59 61 63 64 66 66 65 64 65 64 63 64 64 64 62 63 63 63 62 62 63 63 64 64 65 67 66 66 67 68 68 67 66 67 67 65 63 63 62 62 62 63 64 64 65 67 68 69 70 72 74 75 74 74 74 73 71 69 68 66 66 66 65 67 65 65 63 61 63 62 62 61 60 61 59 58 56 55 54 55 54 54 56 57 59 60 59 61 61 63 63 64 65 67 68 68 66 65 64 62 62 60 59 59 58 57 57 58 58 58 59 60 60 59 58 59 59 59 59 60 59 60 61 62 63 65 66 68 70 69 68 67 68 69 70 71 73 72 72 72 74 76 74 73 72 71 72 72 71 69 69 67 67 66 64 62 61 60 63 64 64 65 67 66 64 66 67 67 67 65 64 65 64 63 61 59 59 59 61 59
74 70 69 68 69 71 71 73 74 75 77 79 80 81 82 81 80 82 81 81 80 79 80 80 82 80 79 78 76 75 76 78 78 80 78 78 77 78 77 78 78 77 77 77 76 76 76 78 78 79 78 77 76 78 79 80 78 78 78 76 74 72 70 68 66 66 67 66 66 64 63 61 60 60 60 60 60 62 62 61 61 60 61 63 63 64 63 64 64 65 65 64 63 63 65 64 65 66 68 69 71 73 72 70 69 71 72 72 72 72 73 71 71 72 73 75 74 74 75 75 73 73 74 74 73 71 69 68 66 64 65 66 65 65 64 62 61 61 60 58 55 56 57 59 57 59 57 55 54 52 53 53 55 56 57 57 57 57 57 57 56 56 58 60 61 63 65 65 64 64 64 66 68 70 72 74 73 73 74 75 76 78 77 75 75 75 76 75 76 76 77 79 80 81 80 79 77 76 76 75 76 77 79 81 80 81 81 82 81 83 81 82 80 79 79 78 78 79 78 77 76 75 74 76 77 75 75 76 76 77 77 78 78 76 76 76 74 75 76 74 72 70 69 68 68 69 68 67 66 64 62 61 59 59 58 59 59 61 62 63 64 65 66 64 63 62 62 64 63 62 59 58 56 54 55 57 59 61 63 65 67 67 66 65 66 64 63 64 65 65 63 65 64 65 64 64 65 63 63 63 64 66 67 67 68 70 70 68 68 68 67 66 65 63 63 64 62 63 64 64 65 65 67 68 70 71 73 74 72 73 74 74 72 70 68 67 67 67 66 66 65 64 62 62 62 62 61 61 60 59 58 56 55 54 53 53 54 56 57 59 59 60 59 60 61 63 64 66 67 68 69 68 66 66 64 62 62 60 58 57 57 58 56 56 57 57 57 58 58 59 57 57 57 57 57 58 57 58 59 61 61 63 65 66 68 68 66 66 66 68 69 70 72 70 71 73 74 76 75 74 72 71 73 71 71 71 70 69 68 67 65 63 62 61 62 63 63 65 66 66 65 67 66 65 65 63 62 64 63 61 60 59 61 61 61 59
72 69 69 68 68 69 70 71 72 73 75 77 79 81 81 82 81 80 81 83 82 80 81 82 83 82 80 78 76 74 75 76 76 78 78 78 77 79 79 80 79 79 79 79 78 78 77 79 79 80 79 77 77 79 78 79 80 78 78 76 74 72 70 70 68 67 68 67 66 65 64 62 62 61 60 61 61 62 61 60 59 58 59 61 61 63 62 63 63 65 65 64 65 64 63 63 63 65 67 69 70 72 71 70 70 70 70 72 73 71 72 71 72 72 74 74 74 74 74 75 75 74 73 74 72 70 68 66 64 63 63 64 64 63 62 60 59 59 58 56 53 55 57 57 56 57 58 57 56 54 53 54 55 57 59 58 58 58 59 58 56 57 59 61 62 64 64 63 64 65 66 67 68 70 72 74 75 74 75 76 77 77 75 74 74 73 76 75 75 77 78 79 79 79 79 81 79 77 76 76 77 78 80 81 81 82 83 81 80 81 82 81 80 78 78 78 79 80 80 79 77 77 76 77 79 77 77 78 78 79 79 80 80 78 77 78 76 77 76 75 73 71 69 68 67 67 67 66 64 62 61 59 57 58 57 57 58 59 61 61 62 64 66 65 63 63 64 65 65 63 61 59 57 56 56 58 59 61 63 65 65 66 64 66 67 65 64 63 63 64 65 66 65 67 66 65 66 65 64 64 65 67 67 69 69 69 68 70 68 69 67 66 65 64 64 65 63 65 66 65 67 66 68 68 70 71 73 72 71 71 73 72 70 69 67 67 68 67 66 67 66 64 63 63 62 60 59 59 59 58 57 55 54 53 53 53 55 56 58 59 61 61 59 61 63 65 66 68 68 69 67 67 66 65 63 61 61 60 58 57 58 56 55 55 55 55 55 57 57 57 57 56 56 55 55 56 55 56 58 59 59 61 63 64 66 66 65 66 65 66 68 70 70 70 70 72 73 74 73 73 72 72 71 71 70 69 69 70 69 69 67 65 63 62 63 64 65 65 66 66 64 65 64 64 64 64 62 64 64 63 61 61 63 63 62 61
69 68 68 70 70 70 70 71 72 73 75 76 77 79 80 81 80 78 80 81 82 82 80 80 82 81 79 77 75 74 74 74 75 76 77 77 78 79 79 80 79 80 81 81 79 78 78 79 78 79 77 76 78 78 77 77 79 79 79 77 75 73 72 71 69 69 70 68 67 65 63 62 62 61 60 60 62 61 60 58 57 57 58 59 60 61 62 64 65 66 65 64 66 66 64 64 63 65 66 68 70 72 72 72 70 71 71 72 72 71 71 72 70 72 74 73 74 75 74 76 76 75 73 75 73 71 69 67 66 64 63 64 63 61 60 58 57 58 56 54 54 54 55 56 54 56 56 58 57 55 54 56 57 59 58 57 56 58 57 56 55 57 59 61 62 64 64 63 64 66 68 67 69 71 71 72 73 75 76 77 76 75 74 74 75 74 76 77 75 75 77 78 77 77 78 79 77 77 78 76 77 78 79 81 81 83 83 82 80 82 81 81 81 79 78 78 80 78 79 80 79 78 78 78 78 77 78 80 80 81 81 81 80 78 77 79 78 77 75 73 71 70 68 67 66 66 65 65 63 61 59 57 56 56 56 56 56 58 59 61 61 62 64 65 64 63 64 65 65 64 63 61 59 57 57 58 60 61 62 63 64 65 65 65 67 65 63 62 62 64 66 68 67 69 68 67 68 67 66 66 67 69 69 69 69 70 69 69 69 70 68 67 65 63 63 63 65 66 67 67 66 67 66 68 69 71 72 71 71 72 71 70 69 67 65 66 67 67 68 68 67 65 64 62 60 59 57 58 58 57 56 54 52 52 52 52 54 55 56 57 59 61 61 63 63 64 66 67 69 69 69 68 67 65 63 61 61 60 60 58 57 55 54 54 54 53 54 55 55 56 56 55 54 53 53 54 53 54 56 57 57 59 61 63 64 64 64 65 64 65 67 68 68 70 71 70 71 72 71 71 70 70 70 69 69 68 67 68 69 69 68 66 64 62 61 62 63 65 64 64 62 64 63 64 65 64 62 62 63 64 63 63 65 64 63 63
70 68 69 71 69 69 71 73 72 74 75 77 78 80 81 80 78 78 78 80 80 81 80 80 82 81 79 77 76 74 74 73 74 76 78 77 79 79 78 78 79 81 81 81 79 78 78 78 77 77 77 76 78 77 75 77 78 79 79 77 75 75 73 71 70 70 71 69 67 65 64 62 61 62 61 62 62 61 59 57 56 56 57 58 60 62 63 65 67 66 66 65 66 67 65 64 62 63 65 67 69 70 72 72 70 70 72 73 73 72 72 70 70 71 73 73 75 75 75 75 75 75 75 74 73 71 69 67 66 65 63 64 63 61 59 58 56 56 54 54 54 54 53 54 52 54 56 58 56 55 56 57 55 57 58 58 57 57 57 56 56 58 60 61 63 65 65 65 66 67 69 68 68 70 71 72 73 74 76 76 75 75 74 75 73 74 76 77 75 76 75 77 75 75 76 77 75 76 77 77 75 77 79 80 81 83 82 82 81 83 81 81 80 80 78 80 79 79 80 79 79 80 79 79 79 79 80 81 81 82 83 81 79 79 78 80 78 76 74 73 71 69 69 68 66 68 66 64 62 61 59 57 56 56 57 55 54 56 58 60 61 61 62 63 63 65 65 67 65 64 62 62 61 59 58 58 59 60 61 63 65 65 67 66 66 65 63 62 62 63 65 66 68 70 70 69 70 69 68 68 68 70 71 71 71 71 71 69 69 69 68 66 64 62 62 62 64 66 67 66 65 66 64 67 69 71 72 70 71 70 69 68 67 66 65 66 66 66 68 68 66 64 62 60 59 57 56 56 56 57 56 54 52 52 53 54 56 57 56 56 58 60 62 61 61 62 64 66 67 68 69 67 66 64 62 61 60 61 59 57 56 54 52 53 52 54 55 57 55 55 56 54 52 51 51 52 51 52 54 55 55 57 59 61 62 62 63 65 64 66 67 67 67 68 69 69 69 70 69 69 69 68 68 67 67 67 67 69 68 68 68 66 64 62 61 62 62 64 63 62 61 62 62 63 65 63 61 61 61 63 64 64 66 65 64 65
66 68 68 69 67 68 70 72 72 73 75 77 79 80 82 81 79 78 79 79 80 81 79 79 80 80 78 76 74 73 73 71 73 74 76 78 80 79 77 77 78 79 80 80 78 78 78 78 77 78 79 78 76 76 75 75 77 78 78 78 76 75 73 72 70 71 71 69 67 65 63 61 60 61 62 64 62 60 59 58 58 58 59 60 62 62 64 65 66 65 65 66 67 65 63 62 60 62 64 66 67 69 70 70 68 70 72 73 75 73 71 70 68 70 72 74 74 75 76 75 75 77 76 76 74 72 70 68 67 66 65 65 63 62 60 60 58 57 55 56 56 55 53 52 52 54 55 57 56 56 57 56 55 56 57 59 58 57 57 56 56 58 60 61 63 65 65 66 68 69 71 70 70 72 73 74 74 75 77 78 76 76 75 74 73 75 76 75 75 74 74 75 73 74 74 76 74 73 75 76 75 76 78 79 81 83 82 83 82 84 83 83 82 82 80 80 79 79 79 79 81 81 80 80 80 80 82 83 83 84 83 83 81 80 80 79 77 75 74 72 70 69 68 67 66 68 67 65 63 62 60 58 56 56 56 55 55 55 57 59 59 61 62 64 65 66 65 65 63 64 63 64 62 60 59 59 61 62 62 63 64 64 65 66 66 65 63 62 62 64 65 66 68 69 71 71 72 70 70 70 70 71 72 73 72 73 73 71 70 69 68 66 64 62 64 64 66 67 66 64 64 65 65 67 69 71 71 69 70 69 68 67 68 66 66 67 66 66 66 67 65 63 61 59 58 57 57 58 58 59 57 55 53 52 53 55 57 58 57 57 58 60 61 59 59 60 62 64 65 67 67 65 65 63 61 59 59 60 58 57 56 54 52 52 52 54 56 57 56 55 54 52 50 49 49 51 50 51 53 53 55 57 58 60 60 61 62 63 65 67 68 68 67 68 67 67 67 68 69 70 70 69 68 68 67 67 65 68 67 67 66 65 64 63 63 63 63 64 64 63 61 63 64 64 63 61 60 60 60 62 64 65 66 67 66 67
70 68 67 67 69 70 71 73 73 74 76 78 80 82 83 81 80 79 79 80 80 80 80 79 81 80 79 77 75 73 72 72 73 75 77 79 79 80 79 77 78 79 78 80 80 78 77 77 78 78 77 76 76 77 76 76 77 79 79 79 77 76 75 74 72 72 72 69 67 65 64 62 60 61 63 64 64 62 60 60 59 60 60 62 63 63 63 64 64 65 66 68 67 65 64 62 61 62 64 66 67 69 70 70 69 71 71 72 73 72 71 69 68 69 71 72 73 74 75 76 77 78 77 76 74 73 71 70 69 68 67 65 63 63 61 62 60 58 57 57 58 57 55 54 53 52 55 55 55 56 58 58 57 56 58 59 58 59 58 56 58 59 61 63 65 67 67 68 69 71 73 71 72 74 74 76 76 77 78 77 77 75 73 74 75 76 76 75 77 75 73 73 73 73 73 74 72 71 74 74 75 75 77 78 80 82 83 85 84 85 85 84 83 83 82 80 79 81 79 81 83 83 82 82 82 81 82 84 85 86 84 84 83 81 79 78 77 76 74 72 71 70 68 67 67 68 68 66 64 63 61 60 58 57 55 56 56 57 58 58 59 60 62 64 66 67 66 64 62 63 62 64 63 61 61 61 61 63 62 64 65 64 64 66 66 65 63 63 64 65 66 67 69 71 72 71 73 71 71 72 72 72 74 74 74 74 73 72 70 70 68 66 65 64 65 65 67 68 67 65 65 65 65 67 68 70 70 69 70 69 67 67 69 68 66 66 64 65 67 65 64 63 61 60 60 58 58 58 60 59 58 56 55 54 54 54 56 58 59 57 59 58 60 58 57 59 60 62 64 65 65 65 66 64 62 60 60 59 59 58 56 54 53 52 52 54 54 56 55 54 53 51 49 47 48 49 50 51 53 54 56 58 60 62 61 60 62 63 64 66 67 68 66 68 67 66 67 69 70 69 71 70 68 68 69 67 66 67 67 67 67 67 65 64 64 63 64 66 65 64 62 63 63 64 62 61 60 61 62 63 65 66 67 68 68 69
69 69 68 68 70 72 72 74 73 75 76 78 80 81 83 82 81 80 79 80 79 79 80 80 80 80 79 78 76 74 73 73 74 76 76 77 78 79 78 78 77 77 77 78 80 79 78 79 78 76 76 77 76 75 75 75 77 79 79 80 79 78 76 76 74 74 73 71 69 66 64 63 61 60 62 64 65 63 62 62 61 62 62 64 65 64 64 65 64 66 66 67 66 66 64 63 63 64 65 67 69 71 71 71 71 72 72 72 72 71 70 68 68 68 70 71 72 72 73 75 76 76 76 76 75 75 73 72 70 69 68 67 65 63 62 63 61 60 59 59 59 58 57 55 54 53 54 55 55 57 57 56 56 56 57 58 58 59 59 58 59 61 63 64 66 68 69 69 71 73 73 72 74 75 75 75 77 79 78 77 75 73 72 72 73 75 75 77 76 74 73 73 73 75 74 73 72 72 72 73 75 77 79 79 80 82 83 85 85 87 86 86 85 83 82 81 81 82 81 83 84 85 84 83 84 83 83 85 86 86 84 84 83 81 80 78 77 75 73 73 72 70 70 69 67 69 68 67 66 64 62 60 59 57 55 56 58 59 58 57 58 60 61 62 64 65 66 64 62 62 62 63 64 63 62 63 62 64 63 63 63 64 66 67 67 65 65 64 65 66 66 68 69 70 70 72 72 72 73 73 74 73 75 76 74 73 72 72 71 69 68 66 65 66 66 67 69 67 65 64 65 66 66 68 70 69 68 68 69 69 68 67 67 67 66 65 63 64 66 64 62 63 61 61 59 59 59 58 60 61 59 58 56 55 54 56 58 59 59 59 59 59 60 58 58 60 62 62 63 64 64 64 65 64 63 61 60 59 59 59 58 56 54 53 53 55 55 56 54 53 51 49 48 46 46 48 49 52 53 55 57 59 60 61 60 60 61 63 64 65 66 67 66 68 67 66 68 69 69 67 69 69 68 70 71 69 68 68 67 68 67 68 67 66 66 65 66 68 66 66 65 64 63 63 64 62 62 62 63 65 66 68 68 70 70 71
69 70 69 69 69 71 72 74 75 76 77 79 78 81 82 82 81 81 81 79 78 79 80 80 80 81 79 78 76 74 73 73 74 76 76 76 78 78 77 77 77 75 77 79 80 79 80 78 77 78 77 76 76 74 74 74 76 78 80 80 78 79 78 77 75 76 74 72 70 68 66 64 62 60 62 64 64 63 63 63 63 63 64 66 66 66 64 64 63 65 67 66 65 65 66 65 64 66 67 69 69 70 71 72 72 73 74 74 73 72 70 70 68 70 71 70 70 71 72 74 76 76 76 76 77 76 75 73 72 71 70 68 66 64 62 63 63 61 61 61 59 57 57 55 55 55 56 56 57 58 59 57 56 57 58 57 57 58 59 59 61 62 63 65 66 68 70 71 73 73 71 74 76 76 75 76 78 78 78 76 74 73 71 70 72 74 76 76 76 74 74 74 74 76 74 74 72 72 73 74 74 76 77 79 79 80 82 84 86 88 87 86 86 85 84 82 82 84 83 85 86 87 86 85 86 85 83 84 85 84 83 82 81 80 78 77 75 73 72 71 70 70 71 69 68 68 66 68 66 65 63 61 60 58 57 57 58 58 58 57 57 59 59 61 62 63 64 64 63 64 64 65 66 65 64 65 64 64 63 63 61 62 64 65 66 66 66 66 65 67 68 69 70 70 72 74 73 74 74 73 73 73 74 75 74 73 73 73 71 69 67 67 66 68 68 69 69 67 66 64 65 64 65 66 68 68 67 67 67 68 68 67 66 66 66 64 62 63 64 62 60 61 62 61 59 59 59 59 61 62 61 59 58 57 56 56 58 60 61 61 60 59 61 60 58 60 61 60 61 63 63 62 64 65 64 62 61 60 61 61 59 57 56 55 54 55 54 54 52 52 51 49 47 46 46 48 50 52 54 55 56 57 59 60 58 59 61 63 64 65 67 66 67 68 69 68 68 70 68 68 68 68 69 71 72 71 69 67 67 68 68 69 68 68 66 66 66 68 68 67 66 65 63 64 66 64 63 64 65 67 68 67 66 69 71 72
70 71 71 70 70 72 73 75 77 76 78 80 79 80 82 83 82 82 81 79 78 79 78 79 78 79 78 76 76 76 75 75 75 76 77 77 78 76 76 75 76 76 76 77 79 80 80 79 77 77 78 76 75 73 72 72 74 76 78 78 78 80 79 79 77 77 75 74 71 70 67 65 64 62 63 65 65 65 64 65 65 64 66 67 67 67 65 64 63 64 65 65 65 66 67 66 66 67 69 70 70 71 73 74 74 74 74 73 73 73 72 70 70 70 71 70 68 70 71 72 74 76 76 78 77 78 77 75 73 72 71 69 67 66 64 64 64 62 61 61 60 58 57 56 56 57 58 57 59 59 60 58 57 59 58 58 58 58 58 57 60 62 64 65 66 68 70 71 73 73 72 73 75 77 76 78 79 79 77 75 73 72 70 70 72 74 75 76 77 75 75 75 74 75 75 74 73 73 75 75 76 77 77 78 77 79 81 83 84 86 86 86 85 87 86 84 83 85 85 87 86 88 87 86 86 85 84 85 85 85 84 82 81 79 77 76 74 73 71 69 68 70 70 69 67 67 67 67 66 64 63 63 61 59 57 57 57 57 56 56 56 57 57 59 61 62 62 62 63 64 66 66 65 64 66 65 63 62 62 62 61 62 64 65 66 67 68 67 67 68 70 71 72 72 73 74 75 76 75 73 73 75 74 75 74 73 72 71 69 68 67 67 67 69 69 70 69 67 65 64 63 62 63 65 67 69 67 68 66 66 66 66 65 65 64 62 60 61 63 61 59 59 60 61 60 60 60 59 60 62 60 59 58 58 58 57 57 59 61 59 59 59 60 58 57 58 59 58 59 61 62 62 62 63 62 63 61 60 62 61 60 59 58 57 56 54 53 52 50 50 49 48 46 46 47 49 50 52 54 56 57 59 61 59 58 60 62 64 65 66 66 65 66 67 69 70 70 71 70 68 66 67 68 69 71 72 71 69 67 68 68 69 68 69 68 68 67 67 69 69 68 66 65 66 67 65 65 66 66 68 69 68 67 69 70 71
70 71 72 71 72 74 75 76 78 77 78 80 80 81 83 84 83 83 81 80 78 77 76 77 76 77 76 77 78 78 76 76 77 77 78 79 78 76 74 74 76 77 78 79 80 81 79 80 78 76 76 75 74 72 70 71 73 75 76 78 79 78 77 78 77 78 76 74 73 71 69 67 65 63 64 66 67 66 65 65 66 66 67 66 66 66 64 64 65 64 65 63 64 66 67 68 68 69 71 71 71 73 74 75 75 76 75 74 75 74 73 71 71 70 70 69 69 71 71 72 74 76 77 77 75 77 76 76 75 73 71 71 69 67 66 65 66 64 62 61 62 60 58 57 58 59 59 59 58 58 60 59 58 60 59 60 60 60 59 58 60 62 64 66 67 69 71 73 74 72 72 74 76 76 76 77 77 78 77 75 73 71 70 69 71 73 75 77 76 76 77 77 75 77 75 76 75 75 77 77 76 77 75 77 77 79 80 81 83 85 86 87 85 87 87 85 85 87 87 88 88 90 89 88 87 87 85 87 86 87 84 83 81 79 77 75 74 73 71 69 69 69 69 67 65 67 67 67 65 64 64 62 60 58 57 57 57 55 55 55 57 57 55 57 59 60 60 60 61 62 64 66 65 64 66 64 64 63 62 62 62 64 65 67 68 69 68 68 68 70 71 72 72 73 74 75 77 75 75 74 74 76 76 76 75 74 72 71 70 70 69 69 69 71 71 71 70 68 66 64 62 62 63 64 65 67 68 67 66 64 64 64 64 63 62 61 59 60 61 60 59 57 58 59 61 59 60 60 59 60 58 58 58 59 60 58 57 58 59 61 60 60 58 57 56 57 57 56 57 59 61 63 62 62 62 62 61 60 60 59 58 57 59 58 56 54 52 51 49 49 47 47 46 46 47 49 50 52 54 56 58 59 59 60 60 62 63 64 65 65 66 67 65 68 70 71 70 70 68 66 66 66 67 68 70 71 72 71 69 69 68 68 67 67 66 67 69 69 71 71 70 68 67 68 68 67 66 67 66 68 68 68 67 67 68 70
69 70 71 72 72 73 74 75 76 75 77 78 80 82 81 83 83 82 80 78 77 77 76 77 75 77 76 78 79 79 78 78 78 79 78 80 78 76 74 75 74 76 77 79 79 79 78 78 78 77 75 73 73 71 70 70 71 73 75 77 79 78 76 77 78 79 78 76 74 73 71 69 67 65 66 67 65 67 67 66 66 66 68 66 66 65 65 65 63 63 63 65 65 67 68 69 69 70 70 72 73 74 76 77 76 76 75 75 76 75 73 72 73 72 70 70 70 71 71 72 74 75 75 76 76 77 76 76 74 73 71 71 71 69 67 67 65 64 62 63 63 61 60 59 60 60 59 60 60 59 61 60 58 60 61 62 62 61 60 59 60 62 63 65 67 68 70 72 73 73 73 73 75 74 76 76 76 76 76 76 74 73 71 69 71 73 75 76 76 77 79 77 77 79 77 77 77 77 79 78 76 76 76 76 77 79 80 82 82 84 86 87 86 85 87 87 85 87 89 90 90 91 90 90 88 88 87 88 87 85 84 82 80 79 77 76 74 73 71 70 69 67 67 66 66 68 67 65 63 62 63 61 60 58 56 57 55 54 54 53 55 56 55 57 58 58 58 59 59 61 62 64 64 65 64 62 62 61 61 62 64 65 66 68 69 69 68 67 68 70 72 73 74 74 74 76 76 75 73 75 76 78 78 78 76 74 74 72 71 71 70 70 70 72 72 71 68 67 65 63 62 62 63 65 67 68 66 67 65 63 63 62 62 61 60 59 58 58 59 58 57 55 56 57 59 58 58 59 57 58 58 59 58 59 59 58 57 58 60 59 58 58 57 55 55 55 55 55 57 58 59 61 61 62 61 63 62 61 59 58 57 57 57 57 57 55 54 52 51 49 48 47 46 48 48 49 50 52 54 56 58 60 61 62 62 63 65 65 63 66 66 67 66 67 68 69 69 68 66 65 65 64 66 68 68 69 70 70 70 69 69 68 66 66 66 67 69 70 72 73 72 70 68 69 68 68 67 69 67 69 69 70 69 69 69 71
66 68 70 72 72 74 76 76 76 76 77 79 80 80 79 81 82 82 80 79 77 76 75 75 74 75 77 78 80 79 79 79 79 77 78 80 78 76 74 73 73 74 75 77 77 77 76 76 76 75 74 73 73 72 71 71 70 71 73 75 77 77 76 77 77 77 79 78 76 74 73 71 69 67 67 67 66 67 68 68 66 65 66 64 67 66 65 64 63 64 63 64 66 67 69 69 69 71 72 74 74 76 77 75 74 76 74 74 75 76 74 72 71 71 70 71 71 70 71 72 73 74 75 75 77 76 75 75 73 71 70 70 72 70 68 66 64 62 62 64 64 62 61 60 61 61 61 60 62 60 62 60 59 60 61 63 63 61 60 60 61 63 64 65 67 69 71 72 74 74 75 75 76 75 76 76 75 75 75 75 74 73 71 70 71 73 73 75 75 77 78 77 79 80 78 78 78 78 80 78 77 78 77 76 78 80 82 84 84 86 87 88 86 86 86 88 87 89 89 91 91 92 91 90 88 88 87 88 87 85 83 81 80 80 79 77 75 73 71 69 67 66 66 65 67 67 66 64 62 61 62 60 59 57 56 56 54 53 54 54 55 56 56 58 57 57 57 57 58 60 61 63 63 63 64 62 61 63 63 64 65 65 67 68 68 70 68 66 67 69 71 73 75 75 76 76 74 74 74 75 76 77 79 77 75 74 75 74 72 70 70 71 69 71 70 69 67 66 64 63 63 64 64 64 66 66 65 65 64 63 63 61 60 59 60 59 57 57 57 57 57 55 56 56 57 56 56 57 56 58 59 60 59 60 60 59 58 58 59 59 58 59 59 57 56 55 55 55 56 57 58 59 59 60 60 61 61 61 59 58 58 57 56 58 56 55 53 51 51 50 49 47 47 48 48 50 52 53 55 57 59 61 62 64 64 64 64 65 64 66 67 66 66 66 66 67 67 67 67 66 66 65 66 67 67 67 69 70 68 70 69 68 67 67 67 68 70 72 74 74 74 72 70 70 69 70 68 68 67 69 69 69 68 68 69 70
65 67 69 70 72 72 74 75 75 76 78 79 79 78 77 79 80 81 79 77 77 77 76 74 74 76 77 79 81 79 78 78 77 76 76 78 77 75 74 74 73 75 74 75 75 76 74 74 75 75 74 73 72 72 71 70 68 71 71 73 75 76 76 76 75 76 78 76 75 73 74 72 70 68 69 68 66 67 67 66 65 65 66 65 65 65 63 64 63 63 64 66 67 68 70 70 71 72 73 75 74 74 75 74 73 74 76 76 77 77 75 73 72 71 71 71 70 70 71 73 73 73 74 73 75 77 75 74 73 73 72 72 71 69 67 66 65 63 62 64 63 62 62 62 62 62 62 61 62 62 60 59 59 61 62 64 63 61 61 61 62 63 65 65 67 68 69 71 73 75 76 77 75 75 75 75 75 76 76 76 75 73 72 72 72 73 72 74 76 78 78 79 80 80 79 80 80 80 80 80 78 80 79 78 80 82 84 85 85 87 88 87 87 87 87 86 86 88 88 89 91 90 91 89 87 86 86 87 85 83 82 80 80 81 80 78 75 73 71 69 68 66 65 65 66 66 64 63 61 60 60 60 59 57 57 56 55 53 54 54 54 56 57 56 55 57 55 55 56 58 60 61 62 63 63 61 61 62 64 66 66 67 68 70 69 69 67 66 67 69 71 72 73 75 77 76 75 76 75 76 76 78 77 77 75 74 73 75 74 72 70 69 69 69 69 68 68 66 65 63 62 63 64 65 65 64 63 64 64 63 61 61 59 58 58 57 56 56 55 56 55 55 54 54 56 55 54 55 55 57 58 60 59 60 60 60 59 59 58 59 57 56 57 58 57 56 55 55 54 55 56 58 57 58 60 59 59 59 58 56 56 55 54 56 55 53 52 51 52 52 50 48 49 48 49 51 52 54 57 59 61 62 64 65 66 66 65 66 65 67 66 66 66 67 67 68 68 68 69 68 66 65 66 67 67 67 69 69 69 70 69 68 69 69 69 69 71 73 74 75 73 71 70 70 69 71 69 70 68 69 68 68 68 70 70 70
68 69 70 72 73 73 74 74 75 76 76 78 80 78 78 78 78 80 80 79 78 77 76 74 73 74 76 77 79 78 78 78 77 78 77 77 75 75 76 76 74 75 73 73 73 74 72 73 73 74 74 74 73 71 69 69 69 70 70 71 73 74 75 76 74 74 76 74 73 73 72 71 70 69 70 69 67 66 66 65 65 65 66 65 64 63 63 65 64 64 65 67 68 69 71 70 71 72 73 74 73 72 73 72 73 74 76 78 77 75 73 72 71 69 71 70 70 72 72 74 74 73 74 74 74 76 74 75 73 75 73 72 72 70 69 68 66 64 64 65 64 63 64 63 64 63 63 62 64 63 61 60 60 62 62 63 64 63 63 63 63 64 66 66 68 70 71 72 72 74 75 76 75 75 73 75 73 75 77 77 75 74 73 73 72 73 72 73 75 77 79 80 81 81 80 81 82 81 80 81 80 82 81 80 82 82 83 85 87 89 89 89 88 89 88 86 87 87 86 88 89 88 90 90 89 87 86 86 84 82 81 81 80 82 80 79 76 74 72 70 69 67 65 66 68 67 66 64 62 61 59 61 60 58 57 57 55 54 55 54 53 54 56 56 54 55 54 53 56 58 59 61 63 63 64 63 63 63 64 66 66 67 67 69 70 69 69 68 69 71 73 73 74 75 76 77 76 78 77 76 77 79 78 77 75 75 74 74 72 71 72 71 71 69 69 70 69 67 65 64 62 62 62 63 64 63 61 62 63 61 59 60 58 57 56 57 56 56 55 54 55 54 54 54 55 56 54 54 56 57 58 59 60 60 59 60 58 58 57 58 57 57 57 57 56 55 55 53 52 54 55 57 57 58 59 57 58 57 57 56 55 55 55 56 54 53 52 52 53 51 52 50 50 50 51 52 54 57 59 60 62 64 66 67 67 67 66 67 67 67 67 66 67 67 68 70 70 70 70 69 68 67 67 69 69 69 70 69 70 72 70 70 71 71 70 71 73 74 76 75 74 72 70 70 71 71 70 71 70 70 70 69 70 71 71 71
70 69 70 72 74 75 75 76 76 77 77 77 79 78 78 80 79 79 79 78 77 75 77 75 73 75 76 78 77 77 77 77 76 78 78 78 76 77 76 77 75 74 73 72 74 72 71 71 71 72 72 72 71 70 68 70 69 69 70 72 73 75 74 74 74 75 75 73 73 73 71 70 69 68 69 69 67 65 64 66 66 66 66 65 64 65 64 65 65 65 66 68 70 69 70 70 71 72 73 73 72 72 72 71 72 73 75 76 75 73 72 71 69 67 70 68 71 72 74 73 73 72 73 74 74 74 74 75 75 74 74 74 73 72 71 70 68 66 65 66 65 65 66 65 65 65 65 63 63 62 60 62 62 63 63 64 63 65 64 64 65 66 67 68 69 71 71 71 73 75 77 77 76 75 73 74 73 74 75 75 73 73 74 74 72 72 72 73 75 77 79 80 82 83 82 82 82 82 82 83 82 84 83 82 83 83 84 85 87 88 88 88 88 88 87 87 88 86 86 88 87 87 88 89 89 87 86 84 82 80 82 81 81 80 79 79 78 76 74 71 70 68 66 67 68 68 67 65 63 61 59 60 59 59 58 58 57 55 54 54 53 52 54 54 53 54 54 54 54 56 58 60 61 62 64 64 64 63 65 66 67 69 69 71 71 70 69 70 71 73 74 74 74 75 76 78 76 78 76 76 78 77 78 78 77 75 75 74 73 71 70 71 73 71 70 71 70 68 66 65 63 61 61 63 63 61 60 61 61 60 58 58 56 57 56 55 56 57 56 54 54 53 54 56 57 57 55 55 56 58 59 60 59 59 57 59 59 58 57 57 57 57 58 57 56 56 54 52 52 53 55 56 57 58 57 55 55 56 56 55 55 55 55 55 53 52 52 52 51 49 50 50 51 52 52 54 56 58 60 62 64 66 68 69 67 69 68 66 65 66 68 67 68 68 69 71 71 71 71 71 69 69 69 71 71 70 69 67 69 70 71 71 72 71 71 72 74 75 76 76 75 73 72 72 72 73 72 73 71 71 72 70 72 73 73 73
68 67 69 71 72 74 75 77 78 76 77 78 80 79 78 79 79 80 79 77 77 76 78 76 75 75 75 77 76 75 77 76 75 76 76 76 74 75 76 76 74 75 74 72 72 71 70 69 70 71 70 70 70 69 68 70 69 70 71 73 74 74 73 73 72 74 75 75 73 72 71 70 68 67 69 68 66 64 62 64 64 65 67 65 64 63 65 64 65 67 68 70 72 70 70 70 69 71 73 74 74 74 72 71 72 74 75 75 73 72 71 69 68 68 70 69 70 72 72 73 71 70 72 74 73 74 75 76 75 75 74 73 72 72 72 71 70 68 66 67 65 66 67 67 66 67 67 65 64 62 60 61 62 63 65 63 63 64 66 66 67 68 68 68 69 71 73 73 75 76 76 77 76 76 75 73 72 72 73 74 74 74 74 74 73 72 72 74 75 77 79 81 82 84 82 84 83 83 84 84 82 84 83 84 84 83 84 84 85 86 87 87 88 88 87 89 90 88 88 87 85 85 86 88 87 87 85 83 81 81 82 82 81 80 78 78 77 77 75 73 71 69 67 67 69 68 66 64 62 60 59 59 58 59 58 57 55 53 54 53 51 51 53 55 53 54 56 54 54 56 58 60 61 62 64 64 63 64 66 68 67 69 71 73 71 71 70 72 73 74 76 75 75 75 77 78 77 77 77 78 78 77 77 76 75 74 73 74 72 70 69 70 71 72 71 70 68 67 66 65 63 63 61 61 61 62 60 60 59 60 59 57 55 56 55 54 56 58 57 55 54 53 55 56 58 57 56 56 58 60 61 60 59 58 58 58 59 58 57 58 58 59 59 58 57 56 56 54 54 54 55 56 56 56 55 54 54 56 57 57 55 56 57 55 54 54 53 53 51 49 49 48 50 52 54 56 58 60 62 64 66 68 67 67 66 68 66 66 67 68 69 68 68 68 69 70 72 73 71 70 68 69 70 71 70 68 68 68 68 70 71 71 73 73 71 73 74 76 78 77 77 75 74 73 73 75 74 75 73 73 73 72 74 75 74 75
65 67 69 70 72 73 74 76 76 75 75 77 78 78 78 78 77 78 78 77 77 78 80 78 76 76 75 77 75 74 75 74 74 74 74 74 72 73 74 76 74 76 74 72 71 70 68 68 69 70 69 68 68 70 69 68 68 70 72 73 72 72 72 71 71 73 73 73 74 72 71 70 68 67 68 66 65 63 63 63 62 64 65 65 64 64 64 63 65 66 68 70 70 70 69 68 68 70 72 73 73 74 72 71 71 72 73 73 72 72 70 68 68 68 68 69 71 71 70 71 70 69 71 73 73 74 75 76 75 74 72 71 71 71 71 72 71 69 67 67 66 67 67 67 67 68 67 65 63 62 61 63 64 65 65 63 64 64 66 68 68 70 70 69 71 72 74 75 76 78 77 76 75 76 74 73 72 74 74 76 75 76 76 75 74 73 73 72 74 76 78 80 81 83 83 84 83 85 86 85 84 85 85 85 84 84 84 85 86 85 85 86 88 88 87 88 88 88 86 85 84 84 84 86 86 87 85 84 82 82 82 81 79 81 80 78 77 76 75 74 72 70 68 67 67 69 67 65 64 62 60 58 58 58 57 56 54 53 54 52 51 50 52 53 53 55 55 55 56 58 59 61 61 62 62 63 63 64 66 68 69 71 72 73 72 72 72 73 75 76 78 76 77 76 76 77 77 79 79 79 77 77 77 75 74 72 72 72 70 69 68 69 69 70 69 69 67 67 67 65 64 64 62 61 61 61 61 60 59 59 58 56 55 55 54 54 56 57 58 56 54 54 54 55 57 58 57 58 60 61 61 60 60 58 59 60 57 60 59 60 60 61 61 60 59 57 55 55 55 55 56 56 55 55 54 54 54 56 57 56 56 57 57 56 55 55 55 53 51 50 50 49 51 53 55 57 59 61 63 65 66 68 68 66 66 68 67 67 68 70 69 68 69 70 70 72 73 72 70 68 67 68 69 70 70 69 68 69 69 70 72 73 74 73 73 75 76 77 79 79 78 77 75 74 74 76 76 76 74 73 75 74 76 76 76 76
66 68 69 70 70 72 74 75 75 75 76 77 79 78 77 76 75 76 78 79 78 78 79 79 78 77 75 76 74 74 73 73 72 73 73 72 71 72 73 74 74 75 73 72 71 69 67 69 67 69 67 68 70 68 67 67 66 69 70 72 70 70 70 69 69 71 71 72 73 72 70 68 67 67 67 65 64 63 63 61 61 62 64 66 66 65 64 63 65 66 68 69 69 70 70 69 68 70 71 72 72 73 72 70 69 71 72 72 72 73 71 69 68 69 69 71 72 71 69 70 69 69 70 71 73 75 75 75 75 74 72 73 71 72 72 72 71 69 67 65 66 66 67 67 67 67 68 66 65 63 61 63 65 65 65 64 65 65 66 68 70 72 71 71 71 73 74 76 76 76 76 74 73 74 72 73 73 75 76 77 76 76 77 76 74 73 72 72 74 75 77 79 80 81 83 84 84 86 87 87 85 86 87 87 86 86 86 87 86 85 85 87 88 88 87 86 87 86 84 86 85 86 85 87 86 86 84 82 81 80 81 80 79 80 80 79 77 77 75 73 71 69 70 68 68 68 69 67 65 63 61 60 59 58 56 56 54 55 53 51 50 50 51 52 54 56 55 55 57 58 58 60 60 61 61 62 64 65 67 69 71 72 74 75 74 73 74 75 77 78 79 77 78 77 78 77 78 79 79 81 79 78 76 74 72 70 70 70 70 69 68 68 69 68 67 68 67 67 67 65 64 64 63 63 62 62 60 59 58 57 57 55 55 57 56 55 54 56 57 58 56 56 56 55 56 57 59 60 61 63 62 62 61 59 59 58 58 58 60 61 62 63 62 62 61 59 58 56 58 57 57 57 57 57 56 55 55 56 56 56 58 57 57 57 57 57 55 54 53 52 51 51 53 54 55 57 58 60 62 64 65 67 67 65 64 67 67 68 69 69 69 70 70 70 70 71 72 71 70 68 67 68 68 69 70 69 69 70 70 72 73 74 75 75 74 76 77 79 79 80 79 78 76 75 76 78 77 77 75 74 76 76 77 78 78 78
65 67 68 70 71 71 72 74 74 76 77 77 78 77 75 74 73 75 76 78 77 76 77 77 76 76 74 76 74 73 72 71 71 71 71 71 69 71 71 72 72 73 72 71 70 68 67 67 65 67 67 68 68 67 65 67 67 67 68 70 68 68 68 68 67 69 70 70 72 70 68 67 67 65 65 66 65 65 63 61 62 63 63 64 65 66 64 64 65 67 66 68 67 68 68 67 68 70 70 71 73 73 71 69 68 69 70 71 73 72 71 69 68 70 71 72 72 70 69 70 69 71 70 71 72 74 74 73 74 72 70 73 72 72 73 71 69 67 66 65 67 67 66 65 66 66 68 67 65 64 63 64 66 66 65 64 66 66 68 69 70 72 72 71 73 74 74 75 74 75 74 73 72 72 72 71 72 73 75 77 78 78 76 74 72 72 70 72 73 75 76 78 79 81 83 83 84 86 88 89 87 85 85 86 87 88 87 87 87 86 85 86 87 87 86 85 87 86 85 87 85 86 86 85 85 84 83 81 79 79 79 79 79 80 79 78 76 76 74 72 70 69 71 69 68 67 69 67 66 64 62 61 60 59 58 57 55 54 53 51 52 51 50 52 54 56 55 56 57 59 58 58 59 59 60 62 64 66 68 69 71 73 74 76 76 74 75 76 77 76 78 77 79 78 78 79 77 78 80 81 79 77 76 74 72 70 68 68 69 68 67 68 67 66 65 67 68 67 66 64 63 65 63 62 60 60 58 58 57 57 56 55 57 57 56 54 52 54 55 56 57 58 58 57 58 58 59 60 62 64 62 61 59 58 58 58 58 59 61 63 64 64 64 64 63 62 60 59 60 60 59 59 59 59 58 57 56 56 57 56 58 59 57 58 59 58 57 55 54 53 53 52 54 56 55 55 57 59 60 62 63 65 65 65 65 67 68 68 69 70 69 71 69 69 70 71 71 70 69 68 68 70 70 70 70 71 71 72 72 73 74 76 74 74 74 75 77 78 80 79 78 78 77 77 78 80 79 79 78 76 77 77 78 80 78 77
64 65 66 68 69 71 72 73 75 77 79 79 78 76 74 72 71 73 75 76 75 75 76 75 74 74 74 75 74 73 71 70 69 70 71 70 69 69 69 70 70 71 70 69 70 68 66 67 65 66 68 69 68 66 66 68 67 68 69 68 67 66 66 68 68 69 71 71 70 69 68 67 65 63 66 66 65 66 64 62 60 61 62 63 65 66 65 66 66 67 66 66 65 67 66 65 66 68 69 71 73 72 70 69 67 67 68 70 72 70 69 69 68 70 71 71 71 69 67 69 70 70 70 71 72 72 72 72 72 71 71 71 72 70 71 69 67 66 65 64 65 65 66 64 64 66 68 67 66 65 65 65 65 66 64 64 66 68 69 71 71 71 72 72 71 73 72 73 72 73 72 72 71 70 70 70 71 72 74 76 77 76 74 73 71 72 71 73 74 75 77 78 78 79 81 82 84 85 87 89 87 86 86 87 89 90 89 87 86 85 83 85 85 85 85 85 85 87 86 86 84 84 85 84 83 83 83 82 80 79 78 79 77 79 80 78 76 75 73 71 69 71 70 69 68 67 67 69 67 65 63 62 61 60 59 57 55 53 51 51 50 52 50 52 54 55 57 58 59 60 59 58 57 57 60 62 64 66 68 70 72 73 75 77 77 75 77 76 77 77 78 79 80 80 79 79 77 77 79 81 80 78 75 74 72 70 68 68 67 66 65 67 66 65 64 66 68 67 65 63 63 65 64 64 62 60 59 58 56 56 56 56 56 57 55 53 53 53 55 56 56 58 59 59 60 60 61 62 63 63 62 60 58 57 57 58 59 61 62 63 63 64 66 64 64 63 62 61 62 62 61 61 61 61 60 59 58 57 57 58 56 57 56 57 58 58 57 56 54 55 55 54 56 57 57 56 57 59 59 61 62 63 64 64 65 67 68 67 68 69 71 73 71 70 70 70 70 69 68 68 68 69 71 72 70 72 72 73 74 75 74 74 72 73 73 75 76 77 79 78 76 76 77 78 78 80 81 81 80 78 79 79 78 80 79 77
62 64 65 67 68 70 71 73 75 76 78 79 77 75 74 72 71 72 73 75 75 75 74 74 73 73 73 74 72 72 71 69 68 68 70 71 69 68 67 69 68 69 68 68 68 66 64 65 64 65 67 68 68 67 67 69 67 69 67 66 65 64 64 66 68 69 69 70 71 70 69 67 65 64 65 67 67 65 64 62 61 62 63 63 65 66 65 66 66 67 67 66 65 66 65 65 66 67 68 70 72 70 69 68 66 66 68 70 71 70 68 69 69 70 70 70 70 69 67 69 69 71 69 70 71 72 71 70 70 70 72 71 70 69 68 67 65 64 63 63 64 64 64 64 65 66 67 67 67 66 66 67 65 65 66 66 68 70 71 71 71 72 72 70 69 71 70 72 70 71 71 70 70 69 68 68 69 71 73 75 76 75 73 72 71 71 72 72 73 75 76 77 76 78 80 81 83 85 87 87 86 86 87 88 88 90 89 87 85 83 83 84 83 83 83 85 84 86 86 85 84 83 84 82 81 81 83 83 81 79 78 79 77 77 78 77 76 74 72 70 69 70 68 71 70 68 69 70 68 66 64 62 62 60 58 56 54 54 52 52 51 52 52 53 53 54 56 58 59 60 59 58 58 58 59 61 63 65 67 69 71 73 74 76 77 75 76 77 76 78 79 78 80 81 81 80 78 79 79 80 79 77 75 73 71 69 68 68 66 65 64 66 64 64 64 64 66 66 64 64 64 65 65 64 62 60 59 57 57 57 57 58 57 57 56 54 53 54 55 57 57 59 61 61 62 62 63 64 65 63 61 60 59 59 59 59 59 61 62 64 64 65 66 66 66 65 64 63 64 64 63 63 62 62 61 59 58 58 59 57 56 55 55 56 58 57 57 55 56 57 57 55 57 57 58 58 57 58 58 60 60 61 63 64 64 65 67 67 67 69 70 71 71 70 69 69 69 70 68 70 69 70 72 73 72 72 74 75 74 76 76 74 72 74 75 75 75 77 79 77 76 77 78 80 80 80 82 82 82 80 81 79 79 79 79 78
62 63 64 66 68 70 70 72 74 76 77 79 77 75 73 72 71 72 74 75 76 76 74 73 73 74 73 74 73 73 71 69 68 70 71 71 69 67 65 67 66 67 66 67 66 65 63 63 63 64 65 67 68 67 68 69 67 69 67 65 64 64 66 67 69 68 70 71 71 69 68 66 65 64 64 66 67 66 64 62 61 61 63 65 66 68 66 68 68 68 68 66 66 65 65 66 68 69 69 70 71 71 69 68 67 67 69 69 70 68 68 70 71 72 71 72 72 70 69 68 68 69 68 68 69 70 70 69 69 70 71 69 69 67 66 64 62 62 61 63 63 63 64 65 66 67 69 68 69 68 68 68 67 66 68 68 69 71 72 73 72 73 72 71 70 70 70 71 70 69 70 71 70 70 70 69 69 71 73 74 74 73 73 73 71 72 74 74 75 75 76 75 74 76 78 80 82 83 85 85 85 87 89 89 90 89 87 87 86 84 84 83 82 82 81 83 83 84 85 85 83 82 82 80 79 80 82 81 80 79 79 77 75 75 76 77 75 74 72 70 69 70 69 71 71 70 70 70 68 67 65 62 61 59 57 55 53 53 51 51 51 52 53 55 54 56 56 57 58 59 60 59 59 59 61 63 65 67 69 70 72 74 75 74 76 76 76 76 75 77 79 78 80 81 81 80 78 78 78 79 78 77 75 73 71 69 68 68 66 65 64 65 64 65 65 65 67 66 66 66 65 64 63 65 63 61 60 58 59 58 58 59 58 58 57 56 54 54 55 57 58 60 62 63 64 64 65 66 64 64 63 62 61 61 61 61 61 62 64 65 65 67 68 67 68 67 65 65 65 66 65 65 64 63 63 61 59 59 59 59 57 56 57 58 57 56 55 55 57 58 57 56 57 59 60 59 59 60 60 58 59 61 62 63 62 63 65 67 67 69 71 70 72 70 69 70 70 69 69 69 70 71 73 74 73 74 76 76 75 74 74 73 73 74 76 77 76 77 77 78 77 78 80 82 82 82 83 84 83 82 82 81 80 80 80 79
61 62 64 66 68 70 70 72 74 76 77 77 75 74 72 73 73 72 72 74 76 76 75 74 74 76 74 75 75 74 73 71 69 69 70 71 69 67 65 65 64 65 65 66 64 63 63 63 62 62 63 65 66 67 68 70 69 67 66 64 63 64 65 67 69 67 69 70 69 69 68 66 65 64 64 64 65 66 65 64 62 62 63 65 67 67 68 70 70 70 68 66 65 67 67 68 70 70 71 70 71 72 70 68 67 69 68 68 69 69 69 70 71 73 72 72 73 71 69 68 67 67 66 66 68 69 68 67 67 68 69 68 67 65 64 63 61 60 61 62 61 63 65 66 67 69 71 70 70 70 69 70 68 68 69 70 71 73 74 74 74 74 73 72 72 72 72 72 72 70 72 72 70 72 71 71 70 70 72 73 72 74 74 73 73 74 75 75 75 77 77 76 75 76 77 79 81 83 84 84 86 88 88 89 90 88 88 86 85 85 83 82 81 82 82 83 82 82 84 84 82 81 81 79 78 78 80 80 80 80 79 78 77 76 75 76 75 74 73 72 70 71 71 72 72 71 69 69 67 66 64 63 60 59 57 55 53 52 52 52 52 53 55 57 55 57 58 58 58 59 61 61 61 61 62 64 66 68 69 71 73 75 73 73 75 75 75 77 75 77 77 79 81 81 81 80 80 79 78 78 77 76 74 72 70 69 69 70 68 67 66 65 64 64 65 66 67 67 66 67 67 65 64 64 62 61 61 60 60 60 60 59 58 57 56 55 55 55 55 56 58 60 62 64 66 66 67 67 65 65 64 64 62 63 63 63 62 62 64 65 66 66 67 68 70 69 67 67 67 67 67 66 66 65 64 62 60 59 58 58 57 56 56 56 56 56 56 57 59 59 57 57 58 60 62 61 60 61 62 60 60 62 61 61 61 62 64 65 67 69 71 70 71 70 70 71 69 71 71 70 72 73 73 74 73 74 76 75 74 75 75 74 75 75 76 78 77 78 79 80 79 80 82 84 84 84 85 86 85 84 83 82 81 80 80 80
64 64 64 65 66 68 70 71 73 75 76 76 74 73 72 72 73 73 72 73 74 76 75 74 72 74 73 74 75 76 74 72 70 71 70 70 69 67 66 64 63 64 64 64 63 63 64 63 64 63 61 63 64 65 67 69 69 68 66 64 63 65 67 69 69 67 67 68 67 68 66 66 65 64 63 63 64 64 66 64 63 62 64 66 67 69 70 71 71 70 69 67 65 66 68 70 70 72 71 70 71 70 71 69 67 67 68 69 70 71 71 71 73 73 73 73 73 72 70 68 67 65 65 65 66 68 69 67 66 67 68 66 65 63 62 61 59 59 60 62 62 64 65 67 69 71 73 71 71 71 70 70 69 69 71 72 73 74 72 74 75 76 74 72 72 73 74 74 74 72 73 73 72 71 71 72 71 70 72 72 72 74 76 74 74 75 75 77 75 77 78 77 76 77 78 80 82 84 86 86 87 89 88 88 88 87 86 85 83 83 82 81 79 81 83 82 83 81 82 83 81 81 80 79 77 77 79 80 80 80 79 78 76 74 74 75 74 72 72 72 71 72 71 71 72 71 69 68 68 66 64 62 60 58 57 55 53 52 52 52 54 55 57 58 57 58 60 60 59 61 62 62 63 63 64 64 65 67 68 70 72 73 72 71 73 73 74 75 77 79 78 80 82 82 83 81 80 79 77 79 78 76 74 72 70 70 70 68 68 66 64 64 66 66 67 68 67 68 67 68 67 66 64 63 62 63 63 61 62 62 61 59 58 58 57 56 56 57 56 58 60 62 64 66 68 67 67 65 64 65 65 65 64 65 65 65 64 64 66 65 65 67 67 68 70 69 69 68 69 69 68 68 66 65 64 62 60 59 57 57 56 55 56 55 54 55 56 58 59 59 59 58 60 61 63 63 62 63 63 62 62 61 60 60 61 63 64 65 66 68 70 70 71 71 71 70 68 70 71 72 73 74 73 73 73 75 77 75 74 75 77 76 76 77 78 80 78 80 80 82 81 82 84 85 85 86 87 88 87 86 84 83 82 81 80 81
66 65 65 67 67 67 69 71 72 74 75 75 75 74 73 71 71 71 72 74 76 77 76 74 72 72 72 72 74 75 74 72 70 70 69 68 68 67 67 65 63 64 63 63 63 65 66 65 64 62 62 64 64 65 66 67 68 66 65 64 65 67 68 70 70 68 67 67 65 67 66 66 65 63 62 62 62 63 64 63 63 63 64 66 67 67 69 71 71 70 68 67 65 66 67 69 68 71 71 72 70 69 69 68 67 69 68 69 71 72 72 72 74 72 72 73 72 70 69 67 66 65 65 65 65 66 68 67 66 67 66 65 63 62 61 59 57 59 61 61 62 65 66 68 70 72 74 72 73 73 71 71 69 71 72 74 74 74 73 75 75 74 73 73 73 73 75 76 74 74 74 74 74 73 72 73 72 71 73 74 74 75 76 74 74 75 75 76 76 76 77 79 77 77 79 80 82 84 85 87 89 89 89 88 86 85 85 83 82 82 81 81 80 82 82 81 82 80 80 82 81 81 80 79 77 77 78 79 79 78 78 76 74 73 73 74 72 70 70 72 72 73 72 72 70 69 67 68 68 66 64 61 60 58 56 54 52 52 52 53 55 57 58 60 59 59 59 61 60 62 61 63 64 65 65 66 65 67 69 70 71 72 72 71 71 73 75 77 78 80 80 82 84 83 82 80 79 77 77 79 77 75 73 72 71 70 69 68 66 66 64 66 66 68 69 69 68 67 67 69 67 66 66 64 63 65 64 62 62 61 62 60 59 58 56 57 57 58 58 60 62 64 65 66 67 68 66 65 64 63 64 65 65 66 66 66 65 66 68 66 66 68 67 67 69 68 68 70 69 68 68 67 66 64 63 61 59 58 58 57 56 54 55 54 53 53 55 56 58 59 59 60 61 61 62 64 63 64 64 63 62 63 61 61 62 64 65 65 65 67 68 70 72 73 72 70 68 70 72 73 74 76 74 73 74 76 75 74 74 76 78 77 77 78 80 81 80 82 82 82 82 84 86 87 87 87 87 87 86 85 85 84 83 83 81 83
66 63 64 66 67 69 70 71 72 73 74 74 75 76 74 73 72 71 72 73 75 76 75 73 71 70 70 71 73 74 72 71 70 69 68 68 68 69 67 66 64 64 63 63 65 66 66 65 63 63 64 65 66 66 67 66 66 65 63 65 66 67 69 70 69 68 66 66 66 67 66 65 63 61 64 63 63 63 64 63 63 65 65 67 69 69 71 72 70 70 68 67 66 66 67 69 69 70 70 72 70 68 68 68 66 67 66 68 69 70 70 71 72 72 71 71 71 70 69 67 65 66 66 66 65 66 66 65 65 66 65 64 62 60 59 57 57 57 59 61 62 64 66 68 70 71 73 72 74 74 73 71 70 72 74 76 76 75 74 76 75 74 73 74 74 75 76 76 75 75 76 76 75 74 73 74 73 73 74 74 76 76 76 75 75 76 77 77 77 77 78 80 79 78 80 82 83 82 84 86 88 90 88 87 86 85 84 82 82 82 83 83 81 81 80 79 81 80 79 80 81 79 79 77 76 76 77 78 79 77 77 76 74 73 72 72 71 69 69 71 71 72 71 70 68 68 66 68 68 67 64 62 60 59 57 55 53 53 54 54 56 57 58 58 57 58 59 60 61 61 61 61 63 64 66 66 66 67 68 69 70 71 71 72 72 74 76 78 79 80 82 84 85 83 81 80 78 78 77 77 76 75 75 74 72 71 71 69 68 68 66 67 68 69 70 69 69 68 67 69 67 66 67 66 64 64 63 63 61 60 60 58 59 58 56 58 58 58 60 62 64 65 67 66 67 66 65 65 65 65 66 65 67 68 68 66 66 67 67 67 67 69 68 68 70 68 66 68 67 69 68 67 66 65 64 62 61 59 58 56 55 54 54 53 54 55 56 58 59 59 60 62 63 62 63 63 62 62 64 65 63 64 63 62 64 66 66 66 67 68 70 72 73 74 73 71 70 72 73 74 76 76 74 74 75 76 75 76 76 78 77 76 78 80 81 83 81 81 81 81 80 83 84 85 86 86 85 87 86 85 85 84 83 85 83 83
61 62 64 65 67 68 69 70 71 71 73 73 75 75 75 74 73 73 73 74 75 75 73 71 70 69 69 70 71 73 71 69 69 69 69 70 68 70 69 67 66 64 63 65 66 68 67 65 64 64 66 67 67 68 68 67 65 65 64 66 66 67 68 69 67 67 65 67 67 67 66 64 62 62 64 64 64 63 64 65 64 66 65 65 67 68 69 71 69 69 70 68 66 67 68 69 69 71 71 72 70 69 67 66 65 65 65 66 67 69 69 70 70 71 69 69 69 68 67 65 64 64 64 66 65 65 65 64 63 64 64 64 62 60 59 58 58 56 59 61 63 65 66 68 70 70 72 74 75 76 74 72 71 73 75 76 78 76 74 75 76 74 75 76 75 75 74 77 75 76 78 78 77 76 75 74 74 74 75 75 75 77 76 75 75 76 75 75 77 77 78 78 78 79 80 82 83 83 83 84 86 88 89 87 87 85 85 84 82 83 81 81 80 79 79 78 79 79 78 79 79 78 78 76 74 75 75 77 77 76 75 75 73 72 71 71 69 68 68 70 70 70 69 68 67 67 66 68 68 66 64 61 60 58 56 54 54 53 55 56 56 56 57 58 57 57 57 59 61 60 61 62 62 63 65 66 67 68 68 70 70 70 70 72 73 74 76 78 80 82 83 84 85 83 81 80 78 78 78 76 76 75 75 74 72 72 71 70 68 68 67 68 67 69 68 66 68 68 66 67 67 66 67 67 65 64 62 61 60 60 58 57 57 56 56 58 59 60 62 63 65 67 67 66 66 66 66 66 67 66 68 67 67 69 68 67 67 68 68 67 69 70 68 67 69 67 66 67 66 67 67 67 67 67 65 63 62 60 58 56 56 54 52 52 54 56 58 60 61 61 62 63 64 63 63 63 62 63 63 63 64 66 65 64 66 68 68 67 69 70 72 73 73 75 74 72 70 72 74 75 77 76 76 74 76 77 76 78 76 77 76 74 77 79 80 82 83 83 82 82 81 81 83 85 87 86 86 88 86 86 84 85 83 83 84 84
61 63 65 65 66 67 68 69 71 73 74 74 75 76 76 74 73 75 75 74 75 74 72 70 68 67 68 69 70 72 70 69 67 69 70 71 70 69 70 68 66 66 64 65 67 69 67 66 64 65 66 68 67 68 67 66 64 65 66 66 67 67 67 67 66 65 65 66 68 67 65 63 63 63 65 65 66 65 65 64 64 66 66 66 65 67 69 69 67 67 69 68 67 68 70 69 70 71 72 72 70 68 67 65 63 64 66 65 65 67 67 68 69 69 67 67 67 66 65 63 62 63 62 64 65 64 63 62 61 62 62 62 60 59 59 59 58 56 58 60 61 63 65 67 68 70 70 72 74 75 74 73 72 73 75 77 77 75 73 73 74 76 76 77 76 76 75 76 76 77 78 78 79 77 76 76 76 75 76 75 75 76 77 76 75 75 74 75 76 78 78 77 77 78 79 80 82 84 84 83 85 86 87 87 87 87 86 84 83 81 79 81 79 78 77 76 78 78 78 77 77 76 76 74 72 74 74 75 75 75 74 74 72 72 72 70 69 67 67 69 68 68 67 67 65 66 67 68 67 67 64 62 60 59 57 55 55 54 55 56 56 58 58 58 58 57 57 59 60 60 62 60 62 64 65 67 69 69 69 71 69 70 72 73 73 75 76 78 80 81 82 84 83 82 82 81 79 80 78 77 77 75 74 72 70 71 72 70 69 69 68 68 66 67 67 67 67 66 66 66 67 67 68 68 66 64 63 61 60 61 60 58 57 56 57 57 58 59 61 63 65 67 69 68 67 67 67 68 68 68 70 68 67 69 68 67 68 68 67 66 67 69 67 67 68 67 66 66 66 68 68 66 66 66 64 62 60 59 57 58 56 55 53 54 56 58 60 61 62 63 63 65 64 64 62 62 62 63 64 64 65 66 66 66 68 70 70 69 70 72 74 75 74 74 74 73 72 74 75 75 77 77 77 76 76 78 78 80 78 76 76 75 76 78 79 81 83 82 82 82 81 82 83 85 87 88 87 88 87 86 84 86 84 84 85 84
61 63 65 66 67 68 68 69 71 73 75 76 76 77 77 75 75 76 76 76 75 73 71 69 67 67 68 70 72 71 70 69 68 69 70 72 71 69 68 67 65 66 66 66 67 68 66 65 65 65 67 67 65 66 66 64 64 65 66 67 66 66 65 66 64 64 66 67 66 67 65 63 63 65 66 66 67 67 65 65 66 67 68 67 66 68 69 67 67 67 69 68 69 69 70 71 69 71 71 71 69 67 65 63 62 64 64 65 63 65 65 67 68 67 65 65 65 65 63 61 62 63 63 65 64 63 61 60 60 60 61 61 60 60 60 59 57 57 59 61 63 65 66 68 69 70 69 71 72 73 72 71 71 73 74 76 76 74 72 72 73 75 75 76 76 76 77 76 77 77 79 79 79 79 78 78 78 77 76 76 75 75 75 76 75 76 74 74 74 76 77 76 75 77 78 79 81 82 82 81 84 85 87 89 89 87 85 84 82 80 78 79 77 78 76 76 77 78 77 75 76 76 75 73 73 73 73 75 75 74 74 72 72 72 70 68 67 66 65 67 67 67 66 66 65 66 66 66 65 66 64 62 60 58 57 56 55 54 56 57 57 59 60 59 57 57 59 61 60 61 62 61 61 63 65 67 68 69 70 70 69 71 73 74 75 77 77 78 79 80 81 82 82 82 81 80 79 81 79 77 76 75 74 73 71 72 70 68 69 68 68 67 66 66 67 67 67 68 66 66 67 69 69 69 67 65 63 62 62 60 59 57 57 57 55 56 57 59 61 63 64 66 67 69 69 69 69 69 68 70 71 69 68 67 67 67 67 66 66 66 66 67 67 69 67 65 67 68 67 67 67 67 66 66 64 62 60 58 57 58 56 55 53 54 56 58 60 61 63 65 64 63 63 62 61 63 62 64 63 63 63 65 66 68 70 71 72 71 72 74 75 77 75 73 73 72 72 74 75 76 78 79 77 78 78 78 80 81 80 78 76 75 77 78 80 82 82 81 81 80 80 81 83 84 85 86 85 87 85 85 83 85 84 84 85 84
66 65 66 67 69 70 69 70 71 73 75 76 76 78 78 77 76 77 75 75 74 72 70 69 67 69 70 71 71 69 69 69 68 69 69 71 71 70 68 66 65 67 66 67 67 68 66 65 65 66 67 66 64 64 66 64 64 66 68 68 66 67 65 64 63 63 64 65 66 68 67 65 65 67 68 67 69 68 66 66 68 69 69 68 66 68 69 68 67 66 68 70 70 69 70 70 69 71 71 70 68 66 64 62 62 63 64 64 64 64 65 66 66 65 63 63 63 63 61 61 63 63 65 65 63 62 61 60 60 59 59 60 61 60 62 61 59 58 59 61 62 64 66 68 69 70 69 71 73 71 70 70 72 73 74 74 74 72 71 71 73 75 74 75 76 77 78 77 79 78 79 80 80 81 80 80 80 79 78 77 77 75 74 74 76 74 73 72 72 74 75 75 74 76 78 80 82 83 83 82 83 85 87 88 89 87 85 83 81 79 78 77 77 77 76 77 78 78 77 75 76 74 75 75 74 73 73 74 74 75 74 74 73 73 71 69 68 66 66 67 68 67 68 67 65 65 65 64 63 64 62 60 59 57 58 57 56 56 56 57 58 60 61 59 58 58 59 60 62 62 61 61 63 65 66 68 68 68 70 70 71 73 74 75 76 77 79 78 78 78 80 80 80 80 80 78 81 79 78 76 76 74 75 73 72 71 69 68 69 69 69 69 68 67 69 68 68 68 67 67 68 69 71 70 68 67 65 63 63 61 60 58 58 56 56 57 59 60 62 64 66 66 68 69 71 69 71 70 70 72 71 69 68 67 68 67 67 67 66 66 66 68 67 67 66 66 68 69 68 67 65 67 66 64 63 61 60 58 56 56 57 55 54 55 57 58 60 61 62 63 64 63 62 61 61 63 63 65 65 64 64 66 68 70 72 72 74 72 73 75 76 78 76 74 73 73 74 75 77 77 78 79 79 79 79 80 80 80 79 78 77 76 76 78 80 81 81 81 79 79 81 81 82 83 84 85 84 85 83 83 82 83 82 82 83 84
65 64 66 68 70 71 71 70 72 73 75 77 77 77 77 77 78 76 75 74 72 71 70 70 69 70 71 72 72 70 68 67 66 67 68 69 69 69 68 67 67 69 67 68 67 68 66 67 66 67 66 65 64 64 65 66 65 66 67 67 66 66 65 64 64 63 65 67 68 66 66 66 66 67 68 68 70 69 68 67 69 71 69 69 68 70 68 67 66 65 67 69 68 69 69 70 69 69 70 69 67 66 65 63 62 63 64 66 66 66 65 66 67 65 63 62 62 62 62 61 62 62 64 63 61 60 60 58 58 57 58 59 60 62 64 62 61 59 60 62 63 64 66 68 69 69 70 72 74 72 71 71 71 72 74 72 72 72 72 72 73 74 74 75 76 78 77 77 77 79 80 82 82 82 80 81 81 80 79 77 76 75 74 75 75 73 73 72 70 72 73 74 72 74 76 78 80 82 82 82 82 84 85 87 87 85 84 83 82 80 78 76 75 76 77 77 76 76 75 73 74 73 74 76 75 74 74 75 76 74 75 76 74 74 72 70 69 68 67 68 69 67 66 65 65 65 63 63 62 62 62 60 59 57 56 56 55 56 54 56 58 60 60 61 59 58 58 59 61 62 62 63 65 67 68 69 69 68 69 71 71 73 75 76 78 79 77 78 77 76 78 79 79 79 79 79 79 77 76 75 74 72 73 74 73 73 71 70 70 69 70 70 70 68 70 69 69 68 67 67 69 70 70 69 69 67 65 64 63 62 60 59 58 56 56 58 60 61 63 64 66 67 66 68 69 69 69 70 71 72 70 69 67 67 67 66 66 65 65 65 66 67 68 66 68 68 67 68 67 65 65 67 65 63 61 62 61 59 58 57 55 55 55 55 56 58 60 60 61 62 62 61 61 63 62 64 64 64 63 65 65 67 69 70 72 73 74 74 74 75 76 77 75 74 72 74 75 76 77 79 79 80 81 81 81 81 82 82 80 80 79 77 76 78 79 81 79 81 80 80 80 80 81 81 82 83 82 83 82 82 82 82 80 80 81 82
63 64 66 68 70 71 73 72 73 75 76 78 78 79 78 77 78 76 75 74 72 72 72 71 71 72 71 72 70 68 67 66 64 65 66 67 67 68 66 65 66 67 68 68 66 66 67 67 67 66 66 65 64 65 66 67 66 65 66 67 68 66 65 63 64 65 66 65 66 65 66 67 68 67 68 67 68 68 68 68 68 70 71 71 69 69 68 67 65 65 66 68 67 68 68 69 70 70 70 68 66 66 66 64 63 64 65 66 67 68 67 68 66 65 63 61 60 60 62 63 63 61 63 61 60 58 58 57 56 55 57 59 61 63 65 64 62 61 62 64 64 66 68 69 68 69 70 72 74 72 72 70 69 71 72 71 71 72 73 73 73 73 75 75 74 77 76 76 78 80 81 82 82 81 79 80 81 80 80 78 76 74 74 75 74 73 74 72 71 71 72 72 70 73 75 76 78 80 81 82 81 82 83 85 86 85 84 84 83 81 79 77 76 77 78 77 77 76 74 73 73 73 75 75 73 72 72 73 74 74 76 75 73 75 73 71 70 70 68 68 68 67 66 65 64 63 61 61 62 60 61 60 59 57 55 54 53 55 55 56 57 58 59 60 59 58 59 59 60 62 63 65 66 68 68 70 71 69 70 70 70 72 74 76 77 78 76 77 75 74 76 77 77 79 79 80 79 77 75 74 73 73 75 75 74 75 73 72 70 70 71 72 71 70 72 71 69 67 67 67 69 69 69 68 68 67 65 63 62 64 62 61 59 57 56 58 60 62 64 63 64 65 65 66 68 68 68 69 70 71 70 69 68 68 69 67 66 66 65 67 68 68 67 66 66 68 66 66 65 64 64 65 64 63 61 61 60 59 57 56 54 54 55 54 56 58 58 59 59 60 61 60 60 61 63 65 65 64 64 64 64 65 67 69 71 72 74 76 76 76 77 75 74 72 72 72 74 75 76 78 80 82 83 81 83 83 84 84 82 82 81 79 77 79 78 79 78 80 80 81 80 80 80 80 80 81 81 82 83 83 81 80 78 78 79 80
61 63 64 66 68 70 71 73 74 75 77 78 79 79 78 77 78 78 76 75 73 73 74 73 72 73 72 70 68 67 66 65 64 64 65 66 66 66 64 65 67 69 70 69 68 68 67 67 67 68 66 65 64 64 65 66 66 65 66 68 66 64 63 63 63 65 67 65 65 65 66 66 66 67 67 67 69 70 69 68 68 68 69 69 68 70 69 67 66 66 67 68 67 66 68 69 68 69 68 67 66 66 66 65 65 66 67 67 68 69 69 68 67 65 63 61 60 62 63 64 63 61 61 60 58 57 56 55 55 55 56 58 60 62 64 65 64 63 63 64 66 67 69 67 67 69 70 72 74 72 71 69 69 71 71 69 69 71 72 73 75 74 75 76 75 76 76 76 77 79 79 81 81 80 79 79 79 79 78 77 75 75 74 75 75 73 72 71 71 71 73 72 71 73 74 75 77 78 79 80 80 81 81 83 84 85 83 83 83 81 79 78 77 78 79 79 79 77 75 73 73 73 74 73 71 71 71 73 73 72 74 74 72 73 72 71 72 71 69 69 68 67 65 63 63 61 60 59 60 60 61 59 58 56 56 55 54 55 56 56 57 58 59 59 61 60 60 60 61 62 64 66 68 69 70 71 70 69 71 71 71 73 75 76 76 76 74 75 73 72 74 75 76 77 78 80 78 76 75 73 73 75 74 75 76 75 74 72 70 70 71 73 73 71 71 69 68 67 67 68 68 68 68 67 67 65 64 63 62 62 63 62 60 58 57 58 59 61 62 62 63 64 65 65 67 68 70 69 70 71 71 70 69 68 69 67 67 67 67 68 69 68 66 65 65 66 66 64 63 63 63 63 62 61 60 60 59 58 57 55 53 54 53 53 54 56 56 58 58 58 59 59 59 60 62 64 64 64 64 64 63 65 66 68 70 72 73 75 75 76 76 75 73 73 73 72 73 74 76 77 79 81 83 83 84 85 85 86 84 83 83 81 79 79 78 78 76 78 79 79 78 78 80 78 78 80 81 82 83 83 82 80 78 77 78 78
63 63 63 66 67 69 71 73 75 75 76 78 80 78 77 77 78 79 77 76 74 75 76 74 73 72 71 69 67 65 64 63 63 64 65 65 64 65 64 65 67 68 69 70 69 68 66 66 66 66 67 65 66 64 64 65 67 66 67 66 64 62 61 62 63 65 65 64 65 67 67 67 66 67 67 68 69 70 71 69 70 68 67 69 68 68 70 69 67 68 68 67 65 65 66 68 67 67 66 68 68 67 67 67 65 67 68 68 68 69 70 69 67 65 64 63 62 64 64 64 64 62 61 59 58 56 54 54 55 55 55 56 58 60 62 63 62 63 65 66 67 69 69 67 67 69 71 72 73 73 71 70 71 72 71 69 70 72 74 75 76 75 74 74 75 76 77 77 77 78 78 79 79 81 79 78 77 77 79 78 76 76 74 74 75 73 71 70 71 72 72 71 73 74 74 74 76 77 79 79 79 81 82 82 84 84 82 83 83 82 81 79 78 79 81 81 80 78 77 75 74 75 74 72 72 73 72 71 73 73 74 73 72 74 73 72 73 73 71 70 69 67 65 63 62 60 59 59 61 61 59 58 56 56 57 56 56 57 57 58 59 60 60 60 59 61 60 62 62 64 64 66 66 67 68 69 71 70 72 72 73 74 76 76 75 75 74 74 72 71 73 74 76 76 76 78 78 76 75 74 74 73 73 74 75 75 74 72 70 71 71 73 73 73 72 70 68 66 66 66 65 67 66 65 67 66 64 63 63 61 62 61 59 58 57 58 59 61 62 63 63 64 66 67 68 70 71 70 70 71 70 71 69 69 68 68 69 69 69 69 69 69 67 67 65 65 66 65 65 63 63 63 62 60 60 60 58 57 55 54 53 52 52 52 53 54 54 56 57 58 59 59 60 60 61 62 63 63 62 62 62 64 66 68 70 71 72 73 73 75 74 74 74 74 72 72 73 73 75 77 78 80 82 83 84 86 87 87 85 85 85 83 81 81 79 78 77 77 77 78 76 77 79 79 80 81 82 82 81 81 80 78 77 77 77 79
60 61 63 65 68 70 72 74 75 77 76 77 78 80 78 76 76 78 78 76 75 76 75 73 72 70 69 67 66 64 64 62 61 64 63 63 64 65 65 67 69 68 70 72 71 69 68 66 66 67 68 67 68 66 66 67 66 67 66 64 63 61 61 60 62 63 64 63 65 67 68 67 68 69 68 69 70 71 71 71 70 68 67 68 67 66 68 67 66 66 67 66 65 66 66 66 64 65 66 68 68 68 68 66 66 68 67 68 68 67 69 68 66 64 64 64 64 65 66 64 64 63 61 59 58 56 54 54 53 53 53 54 56 58 60 61 61 62 64 64 65 67 67 67 66 68 69 71 73 73 71 70 71 72 70 69 70 72 74 76 74 74 72 74 74 76 76 77 76 77 77 79 78 80 79 78 76 76 77 78 76 75 73 74 73 72 70 70 71 71 70 70 72 74 72 73 74 76 78 80 80 81 81 81 81 82 82 83 82 83 82 80 80 81 83 83 81 80 78 76 74 73 72 71 73 73 72 71 72 73 72 72 72 72 71 72 73 72 71 70 68 67 65 63 63 61 60 60 61 60 58 57 55 57 57 56 58 59 58 59 60 61 61 61 59 60 60 62 62 63 63 64 64 65 66 68 69 69 70 72 74 76 77 76 77 75 74 72 71 70 71 73 75 75 75 76 76 75 73 73 72 72 73 74 74 76 75 73 72 72 73 74 72 71 70 68 66 65 65 64 63 65 64 63 65 67 65 64 62 61 61 61 60 59 58 58 60 62 63 65 63 65 67 68 70 71 70 71 70 71 69 69 68 70 69 69 69 69 70 71 70 71 69 67 65 64 64 63 63 63 61 61 62 60 60 60 58 56 54 55 53 51 50 50 51 52 53 54 56 58 60 61 60 61 61 62 63 65 64 64 63 64 65 67 69 70 71 72 72 74 72 72 72 73 71 71 71 73 74 76 78 79 80 81 83 84 85 86 84 83 83 83 81 80 79 79 78 76 76 76 75 76 77 78 78 79 81 81 80 80 78 77 77 77 76 77
61 62 64 67 69 70 72 74 76 77 77 76 78 79 77 75 74 77 79 77 77 75 73 72 70 69 68 67 65 64 65 63 62 63 63 64 65 67 67 69 70 70 71 70 70 69 70 68 67 68 70 68 69 67 67 65 65 66 65 63 63 62 61 59 60 61 62 63 65 67 68 67 67 68 69 69 71 71 69 70 69 68 67 67 65 65 66 67 65 65 65 65 63 65 66 64 63 65 66 66 67 68 69 67 66 66 65 67 67 65 67 66 64 66 65 66 66 67 67 66 65 64 62 60 58 56 54 52 52 51 51 52 54 56 58 60 60 62 63 65 66 66 66 66 65 66 68 70 71 72 71 70 70 71 69 67 68 70 72 74 73 72 71 72 73 75 75 75 74 75 75 77 77 78 77 76 75 74 75 77 75 74 72 74 72 70 68 69 69 70 69 70 70 72 73 74 76 78 79 79 80 81 81 80 80 81 83 82 82 83 82 81 81 82 84 84 82 80 78 77 75 73 71 71 71 72 72 70 71 72 72 71 70 70 68 70 72 72 71 69 68 67 65 64 64 63 61 59 59 59 58 56 55 56 57 59 59 59 58 60 62 62 62 62 61 62 61 61 61 61 62 63 62 64 64 66 68 70 72 73 74 74 76 77 76 74 73 71 70 70 72 73 73 73 74 74 74 74 73 73 73 72 74 75 73 75 73 71 73 72 74 73 71 69 68 67 65 63 63 62 62 63 64 64 65 66 65 63 61 62 62 61 61 60 59 60 62 63 64 64 64 66 68 70 68 70 70 72 71 72 70 69 68 69 71 71 69 71 72 73 71 69 67 66 64 63 64 62 61 61 61 60 60 61 60 60 58 56 54 55 54 52 52 51 49 50 51 53 55 56 58 60 61 61 62 62 63 64 65 63 63 65 66 67 67 69 70 70 72 73 73 71 70 71 70 70 71 73 74 75 76 78 80 80 81 82 84 85 83 82 82 82 80 81 80 78 77 78 76 75 74 74 75 77 79 80 81 79 78 78 77 76 76 76 76 76
58 60 63 65 67 69 71 72 74 76 75 76 77 77 76 75 75 77 79 78 76 75 73 71 70 70 69 67 66 66 66 65 64 65 65 65 66 67 68 69 70 72 71 72 71 70 69 68 67 67 69 69 69 69 69 67 66 66 64 63 63 62 60 58 58 60 62 62 63 65 67 67 67 69 67 67 69 69 67 68 67 66 66 65 63 63 64 65 63 64 64 63 63 64 64 63 63 64 66 67 68 69 69 67 66 64 64 65 66 66 67 66 65 67 67 68 67 69 68 66 64 63 61 60 59 58 55 54 53 53 52 54 55 57 59 59 59 60 62 63 65 65 64 64 64 65 67 68 70 71 71 71 71 69 68 67 68 69 71 73 72 71 71 73 72 73 74 74 73 73 73 75 76 77 76 75 74 73 75 76 76 74 72 72 70 68 67 68 68 68 67 68 69 71 73 75 76 77 77 78 79 81 80 80 80 82 83 82 80 83 83 81 79 81 82 83 81 80 78 77 75 73 71 72 70 70 70 68 70 72 73 72 70 68 67 69 70 71 69 68 66 65 65 66 64 62 60 59 58 58 58 56 56 58 59 61 61 60 60 62 62 63 62 63 63 64 63 62 63 63 63 61 61 62 64 66 68 69 71 72 74 74 74 75 75 74 73 72 72 72 73 75 74 74 74 74 75 74 74 74 73 72 72 73 73 73 73 71 72 72 73 71 69 67 67 65 64 62 61 61 61 61 63 64 66 66 64 63 61 61 62 63 61 61 61 62 63 65 66 65 65 66 68 68 68 70 71 72 73 73 71 71 69 71 72 72 71 72 74 73 71 70 68 66 64 63 64 62 60 60 61 61 60 60 58 58 57 55 55 55 54 52 51 49 48 48 50 52 54 56 57 59 61 61 62 63 65 65 67 65 64 66 68 67 66 67 68 70 70 72 73 71 70 70 69 70 70 71 73 74 76 77 78 78 79 80 82 84 82 81 81 80 80 82 80 79 77 77 77 76 75 75 75 75 77 79 79 78 77 77 78 76 74 75 76 76
60 62 65 66 68 70 72 73 75 75 74 75 76 75 74 74 75 77 78 78 76 75 73 72 71 70 69 67 67 67 67 67 66 67 67 66 67 67 68 70 71 71 70 70 71 70 68 67 68 68 70 69 69 67 69 69 67 65 64 65 64 63 61 59 59 61 62 64 64 65 66 66 67 67 66 65 67 67 66 67 65 65 64 63 62 61 64 64 63 62 63 63 63 64 65 64 63 64 65 67 67 67 68 68 66 65 64 66 66 66 68 68 67 68 69 70 69 68 67 65 63 63 63 62 61 59 57 55 55 55 54 55 56 58 59 58 60 59 61 63 63 63 63 62 64 65 66 66 68 69 69 70 70 69 68 68 69 70 72 74 73 73 72 71 71 73 73 73 74 74 73 75 74 75 75 75 74 73 73 75 77 75 74 73 71 69 67 67 68 68 68 69 71 73 74 76 77 78 78 80 81 82 80 80 82 80 82 82 81 81 81 80 78 80 81 82 82 81 79 78 76 74 72 71 69 69 70 69 69 71 72 71 69 68 67 68 70 71 69 68 67 66 66 64 64 63 61 60 59 57 59 57 58 60 61 63 62 62 62 63 64 65 64 65 65 65 65 64 65 65 65 63 62 63 65 66 68 70 72 74 75 74 74 75 77 75 73 73 73 72 73 73 75 75 74 74 76 76 75 76 74 73 74 74 74 74 74 73 72 70 71 70 68 66 65 64 62 60 59 59 61 62 64 66 66 66 66 64 62 62 61 62 61 61 63 64 65 66 68 66 66 66 67 68 70 72 72 74 73 73 72 73 71 73 74 73 71 73 75 74 72 70 68 66 65 65 65 63 61 60 62 62 61 59 58 57 56 56 55 55 54 53 52 50 48 49 51 53 55 57 59 60 62 63 63 64 66 67 68 66 65 66 66 67 66 66 66 68 69 71 72 72 70 71 71 71 72 73 74 76 77 78 77 77 79 80 82 84 83 81 79 79 81 82 82 80 78 77 78 78 76 75 77 75 76 77 77 77 78 78 78 78 76 77 78 76
62 64 65 67 69 71 72 73 74 73 73 75 75 75 74 74 75 77 77 78 77 75 74 73 72 71 69 68 67 68 69 69 68 68 68 68 66 67 66 68 69 70 68 71 69 68 67 65 67 69 70 69 67 67 67 69 67 66 66 66 65 63 61 60 61 62 64 66 64 64 66 67 66 65 64 64 65 65 64 65 63 63 63 65 63 62 63 63 62 61 61 63 64 62 64 64 64 65 67 66 66 66 68 69 67 66 64 64 65 66 67 69 69 70 70 71 70 69 68 66 65 64 65 64 63 61 59 57 56 57 56 55 57 59 58 58 58 57 60 61 61 61 61 62 63 64 64 66 67 67 67 68 69 68 68 70 70 71 73 75 74 74 74 72 73 74 73 73 73 75 75 74 72 73 73 75 74 73 74 76 75 76 74 72 70 69 67 66 67 68 70 71 71 72 73 75 76 78 79 81 81 83 81 80 81 80 81 81 81 82 81 79 78 79 80 81 82 81 79 78 78 76 74 72 70 69 69 69 69 70 71 70 68 67 67 68 69 70 71 69 68 66 66 65 64 63 61 59 57 56 58 58 60 61 63 64 64 64 64 64 64 65 65 67 67 67 67 67 67 67 67 65 64 64 65 67 69 71 72 74 76 75 76 76 76 77 75 75 74 73 73 74 75 77 76 75 76 77 75 77 76 74 76 76 75 75 74 72 71 69 70 68 66 64 64 62 60 60 59 61 63 64 65 65 67 65 64 63 61 60 60 62 62 61 63 65 67 67 67 67 66 67 68 69 71 72 74 75 74 74 73 74 73 75 74 73 73 74 74 76 74 72 70 68 66 67 67 65 63 62 62 62 61 60 59 57 58 57 57 56 55 53 52 51 50 51 53 55 57 58 59 61 63 65 63 63 64 65 66 66 65 67 67 66 66 67 68 69 70 72 73 74 72 72 72 73 74 75 76 78 80 79 78 79 79 80 82 83 82 80 79 79 80 82 82 80 79 79 78 78 78 77 76 76 76 76 76 77 79 79 79 79 78 78 79 77
